2.17698 -6.0206 0.376886 0.701054 0.706614 -0.0960255
-2.53302 1.5694 -1.15312 0.425466 -0.502032 -0.752956
4.06698 4.2094 -2.23311 -0.991237 0.0425392 0.125055
-1.66302 -5.5106 0.796885 0.806549 -0.410234 -0.42566
1.72698 0.7894 1.84688 0.759701 0.314463 0.569181
-0.73302 1.5694 2.71688 -0.538174 -0.15234 0.828952
3.01698 -6.6506 0.436886 -0.457837 -0.635433 -0.621779
-2.14302 -1.1606 0.646885 -0.142496 0.966799 -0.212117
-2.95302 -5.4806 1.09688 -0.919011 -0.35149 0.178534
-3.97302 3.3694 -2.23311 0.131961 0.990861 0.0279611
-3.73302 -6.5606 0.616885 -0.96956 -0.146074 0.196507
1.12698 4.1194 0.166885 0.619415 0.532224 -0.577117
0.0469792 4.6594 0.496886 0.160919 0.984432 -0.0707018
1.45698 0.489399 1.72688 0.76467 -0.376346 0.523109
-0.343021 -1.9406 1.45689 0.471832 -0.67178 0.571039
2.74698 -4.0106 1.03689 0.71868 0.688723 -0.0957066
-3.94302 3.9994 -3.70311 -0.517952 0.111079 -0.848167
0.436979 4.5694 0.916885 0.27122 0.947098 0.171597
4.27698 3.0994 -2.29311 -0.797621 -0.155644 -0.582731
-2.95302 1.9894 0.376886 -0.746027 0.288455 0.600198
2.65698 -6.3806 1.33688 0.726535 0.198237 0.657913
1.03698 -2.2106 1.54689 -0.409426 -0.565999 0.715553
0.316979 -2.6006 3.19689 0.916276 0.266154 0.299332
-1.42302 -0.140601 1.27689 -0.929628 0.319736 0.183194
1.03698 4.1794 -1.45311 0.315596 0.282645 0.905821
-0.70302 -1.7606 -0.0431147 -0.109689 -0.396444 -0.911483
2.26698 -6.5906 -0.163115 0.128349 -0.991465 -0.0228926
-2.11302 -2.9606 1.39689 -0.0413822 -0.441621 0.896247
0.64698 4.4494 1.00689 0.21381 0.749092 0.627014
-1.57302 -4.6706 0.316885 0.621045 -0.218193 -0.752792
4.93698 2.2894 -1.63311 0.785836 -0.601026 -0.145702
0.226979 -1.9706 0.976885 -0.813117 -0.531684 0.236966
-0.433021 4.3894 1.42689 -0.313702 0.858434 0.405811
1.75698 4.6594 -1.87312 0.438722 0.28391 0.852595
3.55698 1.5094 -1.21311 -0.603217 -0.792831 -0.0868752
0.79698 4.0894 -2.08312 -0.945951 0.00991346 -0.324157
-1.66302 -6.6206 1.66689 0.577248 -0.676475 0.457347
-3.85302 -6.3206 0.436886 -0.555353 0.675425 0.485165
4.81698 3.1294 -0.973115 0.827338 0.544352 0.138538
1.60698 -6.5606 0.736885 -0.968736 0.0718438 -0.237462
2.14698 -6.3206 -0.283114 -0.566369 0.609014 -0.555273
-4.69302 2.5894 -1.57311 -0.899559 -0.0373433 0.435201
-1.36302 -0.230601 1.51689 -0.937699 -0.0597414 0.342274
-0.97302 -2.8406 0.676885 0.580584 -0.420593 -0.697154
-2.29302 -6.6806 0.556885 0.043103 -0.999027 -0.00931153
0.436979 1.9894 -3.64311 -0.157225 -0.978534 -0.133238
-1.03302 3.0694 -1.57311 -0.913993 0.0993272 -0.393385
4.72698 3.5194 -3.46312 -0.860864 0.106613 0.49754
2.50698 -6.0506 1.42689 0.939879 0.201948 0.275398
-0.253021 2.0194 -1.60312 -0.716386 -0.69201 0.0889641
1.00698 0.9994 2.50689 -0.0146416 -0.348591 0.937161
2.17698 -1.7306 -0.0731145 0.464082 0.100664 -0.880054
-3.55302 3.1294 -1.54311 0.178259 0.847626 0.499753
-2.86302 2.5594 -1.75312 0.873208 0.389153 -0.293373
3.85698 3.0994 -1.75312 -0.75498 0.0637408 -0.652642
-0.61302 4.3894 -2.50311 0.569593 -0.0388716 -0.821007
-0.493021 3.4594 2.50689 -0.399576 0.68017 0.614579
-1.72302 -1.7306 1.84688 -0.0406794 0.220444 0.974551
-2.47302 -3.1106 -0.343114 0.17293 -0.13653 -0.975425
1.18698 2.7994 -1.09311 -0.283958 -0.84578 -0.451691
-2.80302 -6.5306 -0.523115 0.817029 -0.0855525 -0.570215
-1.90302 -6.7106 1.57688 0.042327 -0.996951 0.0655585
1.57698 0.0693995 0.526885 0.626603 -0.680904 -0.379129
-2.02302 2.7994 0.0768855 -0.940797 -0.194611 -0.277537
-0.76302 3.8194 -0.853115 -0.833884 0.408972 -0.370648
0.52698 3.8494 -2.11312 0.0398562 0.944072 -0.327321
1.84698 -4.4006 1.90689 -0.0256498 0.416107 0.908954
0.496979 4.1794 -1.30312 0.402082 0.908429 -0.114399
-2.68302 -3.8906 -0.253114 0.183001 -0.195242 -0.963531
-0.76302 4.3594 0.976885 -0.369761 0.815588 0.445076
0.376979 -1.6106 -0.223115 0.835001 -0.485347 -0.259252
1.54698 -5.9006 1.12688 -0.688516 0.570558 -0.447672
0.55698 1.9594 -3.10312 0.172086 -0.983925 -0.047732
-2.65302 2.7094 -0.823115 0.283839 0.945672 -0.158556
3.97698 3.2194 -1.87312 -0.811619 0.00975179 -0.584106
1.30698 -4.6106 1.63688 -0.873532 0.183868 0.450704
1.81698 -4.4906 0.256885 -0.243468 -0.423405 -0.872612
2.50698 -1.9706 1.36688 0.825426 0.299137 0.478737
1.42698 -3.1406 0.136886 -0.759447 -0.645176 -0.0835932
0.73698 -1.5806 1.93688 0.113342 -0.255441 0.960158
-2.95302 -2.7506 0.676885 -0.874085 -0.280015 0.396947
1.30698 4.2694 -1.57311 0.386025 0.128429 0.913504
1.87698 3.2794 -0.0131147 0.801046 0.31945 -0.506238
-0.283021 3.0994 2.68688 -0.363133 0.155321 0.9187
-0.163021 2.3494 2.89688 -0.138508 -0.0071505 0.990335
0.88698 4.5094 -1.81312 -0.749823 0.586425 0.306384
-1.90302 -2.8106 1.51689 -0.378487 -0.358161 0.853504
1.39698 -5.0606 1.87688 -0.799633 0.0157335 0.600283
2.32698 -5.9906 1.66689 0.8265 0.209897 0.522342
0.55698 2.0194 -1.60312 0.490676 -0.735278 0.46755
-1.81302 -3.9206 1.24688 0.65616 0.515079 0.551496
1.54698 3.5194 0.0168853 0.299429 0.906468 0.297755
4.36698 3.5494 -2.68312 -0.993232 0.0187525 -0.114627
0.286979 3.4294 -2.53312 -0.0319127 0.459056 -0.887834
-1.45302 5.0194 -2.26311 -0.722101 0.340873 0.601976
1.48698 2.9194 -1.24311 0.754194 0.521151 -0.399492
1.81698 -6.6506 1.81688 -0.112168 -0.985557 -0.12687
-4.30302 3.6394 -2.95311 -0.0771144 0.633448 0.769933
-4.03302 2.7094 -3.46312 0.948039 -0.267076 -0.172893
2.68698 -4.1906 1.54689 0.734075 0.415828 0.536863
0.61698 2.0794 -1.66312 0.808048 -0.575227 -0.127171
-3.34302 -5.9906 0.646885 -0.233409 0.956844 0.173116
1.60698 -0.5006 0.706885 0.839529 0.32258 -0.437188
-0.67302 2.6794 -1.51312 -0.862967 -0.390027 -0.321197
1.39698 3.3394 -0.553115 0.818853 0.18419 -0.543649
-4.03302 2.9494 -4.60312 0.128547 0.939095 -0.31871
-1.06302 3.9994 0.196885 -0.339635 0.927276 -0.157503
-2.53302 1.1794 0.136886 -0.41342 -0.888389 0.199622
4.87698 2.5294 -0.643115 0.664714 -0.188355 0.722964
-3.28302 2.9194 -1.27311 0.293835 0.931973 0.212336
2.62698 -6.6806 0.826885 -0.133332 -0.984371 0.115047
-1.36302 -1.8806 -0.163115 0.153474 0.271623 -0.950088
0.136979 -2.7206 2.44688 0.10186 -0.68817 -0.718363
-2.35302 -6.6206 1.33688 -0.0626143 -0.997988 0.010007
0.436979 0.459399 -1.03312 -0.459791 -0.817407 -0.347042
-0.91302 -1.1006 1.93688 0.0644505 0.335096 0.939977
2.05698 -5.8406 0.766885 0.237222 0.569225 -0.787216
1.48698 2.7094 2.41689 0.614537 0.183303 0.767297
1.60698 -0.0206004 0.706885 0.882511 0.141184 -0.448599
0.97698 2.3794 -1.18312 0.820244 -0.533681 -0.205874
-1.24302 2.2294 -1.15312 -0.167357 0.193955 -0.96663
1.03698 1.6894 -1.18312 0.00399279 0.463178 -0.886256
3.64698 3.0094 -1.54311 -0.252924 -0.439093 -0.862106
-0.163021 3.6994 2.47689 -0.154516 0.606784 0.779704
1.42698 3.1894 -1.03312 0.762446 0.516709 -0.389471
1.60698 0.5494 1.54689 0.720925 -0.457718 0.520347
-1.42302 -0.2006 0.826885 -0.932457 0.343202 -0.112857
-2.38302 -6.2306 0.166885 0.965339 0.0193985 -0.260279
-2.92302 -5.6306 0.796885 -0.829019 0.225335 -0.511812
1.42698 -3.5006 0.826885 -0.915198 -0.367107 0.166266
3.64698 1.3294 -0.733115 0.41534 -0.906807 -0.0720711
-1.66302 1.0894 1.75689 -0.89541 -0.408444 0.177243
-1.69302 -4.7606 0.226886 0.715394 -0.291611 -0.63496
4.75698 3.3094 -1.66312 0.848192 0.123037 0.515202
2.08698 2.7994 -0.163115 0.405231 0.863545 -0.300129
0.0469792 4.2994 -1.39312 -0.0625673 0.965108 -0.254267
1.21698 3.6994 -1.81312 0.622758 -0.308955 -0.718832
-2.02302 2.8894 1.21688 -0.895667 0.288667 0.338306
1.63698 0.2494 0.106886 0.270496 -0.901143 -0.338783
-2.26302 -4.9106 1.63688 0.143097 -0.00922909 0.989666
-0.373021 4.5394 0.106886 -0.287991 0.834566 0.46964
1.24698 3.9394 0.166885 0.352085 0.886738 -0.299552
2.14698 -4.7006 0.256885 -0.0701147 -0.810109 -0.582071
-0.403021 4.2994 1.63688 -0.257999 0.789995 0.556188
-0.223021 -0.230601 2.32688 0.0383863 0.0321418 0.998746
1.87698 -1.6706 1.69688 0.294532 0.732877 0.613304
1.81698 -4.1906 0.136886 -0.132487 -0.0966229 -0.986464
-2.62302 -4.5806 1.60689 -0.0902867 -0.106911 0.990161
-2.89302 2.6794 -0.163115 -0.430513 0.836195 0.339758
0.64698 4.0894 -0.913115 0.605192 0.795804 0.0209298
-0.163021 2.5894 -2.89312 -0.199328 0.961484 -0.189253
0.79698 1.1194 -1.33311 0.0326461 -0.0436385 -0.998514
2.65698 -5.2406 1.36688 0.927676 -0.344339 0.144389
4.12698 2.4694 -2.14312 -0.682122 0.594182 -0.426213
-4.75302 2.4394 -3.49311 -0.993077 -0.113225 -0.0312668
0.64698 4.3594 -0.793115 0.177715 0.25278 -0.951062
1.75698 -3.7106 1.36688 -0.512375 0.232865 0.826587
-4.36302 3.6994 -3.31311 -0.886522 0.459356 -0.0554174
2.17698 -2.3906 1.66689 0.489122 -0.353953 0.797168
1.54698 -1.1006 -0.0131147 0.518596 0.15126 -0.841533
1.03698 0.6694 2.32688 0.253685 -0.694174 0.673622
4.30698 1.5694 -0.973115 0.310497 -0.77878 0.545063
-0.253021 0.369399 -0.853115 0.39063 -0.753099 -0.529386
0.0469792 4.6294 0.856885 0.0218075 0.978967 0.202852
-2.35302 -6.6506 0.736885 -0.188593 -0.979017 0.0771862
1.48698 3.4894 1.96689 0.476113 0.506256 0.719042
4.72698 3.9994 -2.68312 0.608642 0.465982 -0.642196
-2.11302 -6.4706 1.84688 -0.186772 -0.043034 0.98146
4.51698 2.2294 -0.403114 0.530014 -0.218652 0.819315
2.53698 -4.9106 1.81688 0.754013 0.152526 0.638906
1.93698 -3.1406 1.42689 0.232053 -0.121087 0.965137
-3.46302 1.4794 -1.48311 -0.251173 -0.964633 -0.0799706
-0.70302 3.8194 -1.30312 -0.86083 0.501889 0.0841361
-0.76302 4.2694 1.36688 -0.461038 0.810792 0.360638
-0.79302 3.5194 -1.96311 -0.867733 0.46459 -0.176622
-2.68302 2.1994 -1.33311 0.661572 0.332334 -0.672218
0.256979 0.309399 -0.943115 0.138065 0.0213368 -0.990193
2.80698 1.0594 0.0768855 0.0430415 -0.936894 0.346954
1.60698 -6.1406 2.23689 0.32543 0.454179 0.829347
1.30698 0.1294 -0.223115 0.663181 -0.627475 -0.408003
2.17698 1.9294 1.33688 0.946738 -0.281884 -0.155654
1.42698 -6.5606 2.32688 -0.694175 0.406802 0.593829
-3.94302 -6.2906 0.196885 -0.406151 0.91326 0.0315894
1.39698 3.3694 -0.553115 0.341655 -0.153757 -0.927163
2.71698 1.6894 -0.823115 -0.331617 -0.0125398 -0.943331
-1.42302 0.7294 1.69688 -0.532196 -0.789277 0.306284
-1.69302 2.3194 2.14688 -0.761872 0.178161 0.622743
0.73698 1.7194 2.80689 0.214572 -0.333945 0.917845
1.51698 1.1494 -1.09311 0.514823 -0.198393 -0.834025
-1.15302 3.1294 -1.18312 -0.456985 0.67502 -0.579235
1.09698 4.2994 -1.51312 0.258275 0.353865 0.898929
-2.32302 -3.6806 -0.163115 0.346439 0.0689619 -0.935534
1.87698 -5.8106 0.856885 -0.277303 0.954318 -0.111266
-4.39302 1.8994 -2.50311 -0.791339 -0.528483 -0.30739
-2.92302 2.6494 -1.12311 0.0355013 0.722595 -0.69036
2.11698 -6.6506 1.57688 -0.169168 -0.980229 -0.102632
1.54698 -2.8706 1.51689 -0.315827 -0.481494 0.817568
-2.80302 -6.7106 -0.0431147 0.000229428 -0.999706 0.02423
5.057 3.0694 -2.95311 0.778499 -0.344782 -0.524466
2.50698 -1.4606 0.646885 0.787149 0.616753 -0.003389
0.61698 2.1094 -1.48311 0.859887 -0.311792 -0.404204
2.86698 -6.7106 0.646885 -0.0490365 -0.992053 -0.115875
-2.74302 -6.6206 0.736885 -0.0163163 -0.999422 0.0298348
-2.26302 -1.1906 1.12688 -0.498871 0.834965 0.232296
-3.22302 2.8594 -2.32312 0.244785 -0.898675 -0.363954
-1.87302 3.2494 0.556885 -0.535541 0.688571 0.488944
0.67698 3.8494 2.26689 0.214043 0.707472 0.673549
0.70698 4.4494 -0.193115 0.449576 0.890856 -0.0652393
-1.93302 -3.8006 1.24688 0.620607 0.589928 0.516557
-1.06302 -2.8706 0.646885 0.43874 -0.22553 -0.869852
-1.69302 0.9094 1.69688 -0.73884 0.467462 0.485382
1.66698 -2.8406 -0.253114 -0.5579 -0.269362 -0.784979
-2.62302 -1.5506 0.856885 -0.872551 0.484874 0.0596056
-1.21302 4.5094 -1.93312 -0.784516 -0.116384 0.609089
-4.36302 1.8394 -2.38312 -0.585477 -0.802819 0.112687
1.66698 -1.7306 1.75689 -0.0940119 0.531912 0.841565
-0.073021 4.3294 -1.24311 -0.0470737 0.970226 0.237581
-2.77302 2.7394 -0.733115 0.0587277 0.995419 0.0754444
4.15698 4.2394 -2.53312 -0.37701 -0.683189 -0.625393
2.74698 1.9594 0.946885 0.253578 -0.0782469 0.964145
4.06698 2.6794 -2.08312 -0.768515 0.00292055 -0.639825
-4.60302 2.8594 -2.74312 -0.693325 -0.0482603 0.719007
-1.87302 0.9694 0.106886 -0.63996 -0.768385 -0.00603317
-3.07302 1.7794 -1.96311 0.264936 -0.704332 -0.658578
-1.45302 0.429399 1.12688 -0.920637 -0.348469 0.176058
-2.56302 -2.1506 -0.193115 -0.340147 0.683143 -0.646232
4.75698 2.9194 -0.553115 0.495683 0.501951 0.708762
-0.97302 -2.4506 0.256885 0.684971 -0.49326 -0.536199
-2.14302 -1.2206 0.496886 -0.380008 0.854025 -0.355297
0.0169792 -1.1906 -0.553115 -0.0846731 -0.184354 -0.979206
2.23698 1.2694 -0.493115 -0.10644 -0.55899 -0.822314
1.27698 0.7894 2.29689 0.532376 0.095527 0.841101
1.06698 -0.6506 2.08688 0.702727 -0.141267 0.697293
0.286979 -2.0906 1.69688 0.281924 -0.854255 -0.43677
-3.67302 1.4494 -1.66312 -0.0197122 -0.937094 -0.348521
1.39698 2.8294 -1.27311 0.0433802 -0.815976 -0.576456
0.346979 1.5994 -2.62311 0.423123 -0.807831 -0.410337
-1.18302 4.8394 -2.56312 -0.836111 -0.543821 0.0719496
-2.47302 -2.0006 1.45689 -0.672635 0.118901 0.730359
0.136979 -2.1806 2.83688 0.0021007 0.856291 0.51649
-1.03302 0.8794 2.41689 -0.387657 -0.49635 0.776762
2.20698 -5.6306 0.946885 0.33341 -0.430982 -0.838506
-1.90302 -2.7206 -0.313114 0.275424 -0.00986327 -0.961272
2.44698 -5.6906 1.63688 0.732198 -0.550953 0.400422
-2.08302 -6.5306 0.616885 0.816329 -0.291849 -0.498428
1.63698 0.1294 1.12688 0.99322 0.00995474 0.115819
-1.48302 -1.7306 1.84688 -0.241704 0.0400184 0.969525
4.27698 2.9194 -2.29311 -0.761053 0.0523237 -0.646576
1.96698 2.7694 1.78689 0.911997 0.402825 0.0774202
2.17698 -6.6206 0.976885 -0.081344 -0.996499 -0.019298
-1.21302 0.3994 -0.643115 -0.659145 -0.630251 -0.410257
2.80698 1.0594 -0.343114 0.201016 -0.918587 -0.340279
1.90698 1.1494 1.72688 0.994608 -0.102945 -0.0125663
2.41698 2.1694 1.03689 0.712832 0.112711 0.692218
-3.97302 -6.3206 0.256885 -0.579092 0.789075 0.20497
1.78698 -6.4406 0.136886 -0.761564 0.0571896 -0.645562
0.70698 4.3894 1.36688 0.245557 0.944344 0.218898
-4.09302 1.5994 -1.63311 -0.532789 -0.837819 0.119142
4.75698 3.2194 -1.09311 0.646282 0.761543 -0.0487055
1.27698 -1.0106 -0.133115 0.309903 0.409318 -0.858149
-1.93302 -6.6806 1.36688 -0.290944 -0.95674 -0.00111473
-2.20302 -6.6206 1.39689 -0.256616 -0.951304 0.170786
0.91698 1.9594 2.77689 0.729375 -0.0310744 0.683408
2.08698 -2.2106 -0.313114 0.13825 0.0252122 -0.990076
-3.79302 -6.4406 -0.283114 -0.88947 0.287673 0.355088
-1.90302 1.5694 -0.853115 -0.0711103 -0.400016 -0.913745
2.80698 -4.3706 1.06688 0.889554 -0.270104 -0.368425
2.32698 -6.2606 0.226886 0.226599 0.608029 -0.76089
-1.36302 -2.2706 -0.223115 0.333128 -0.112668 -0.936126
2.14698 2.4994 -0.493115 0.295641 0.454944 -0.840014
-2.65302 -5.1506 1.54689 -0.431297 -0.0605627 0.900175
-4.00302 2.0194 -2.89312 -0.328684 -0.518732 -0.78923
0.88698 2.8894 -2.32312 0.910879 0.152703 -0.383381
-3.88302 -6.3506 0.436886 -0.662889 0.54884 0.509268
-2.92302 1.3594 -1.09311 0.423339 -0.828587 -0.366371
-1.66302 -5.3606 1.21688 0.92289 0.189052 0.33546
-0.88302 -0.110601 -0.283114 -0.689781 -0.320005 -0.649461
-1.09302 -1.1006 1.90689 -0.550787 0.0344153 0.833936
-1.27302 -1.4606 -0.133115 -0.0849292 0.082429 -0.992972
2.74698 -4.4906 0.856885 0.895945 -0.373595 0.240229
-3.16302 -6.6506 -0.583115 -0.447248 -0.850207 0.277702
1.99698 -3.3506 -0.223115 -0.388844 -0.0853018 -0.917346
0.73698 1.6294 -1.15312 -0.299827 0.490805 -0.818055
-0.163021 -1.2806 2.14688 -0.178192 -0.0597842 0.982178
1.33698 0.219399 -0.523115 0.681997 -0.65851 -0.31819
1.93698 -5.1506 2.14688 -0.198313 0.207795 0.957859
1.45698 -6.1706 2.23689 -0.395519 0.593431 0.701002
1.06698 -2.3606 -0.0131147 -0.827158 -0.247596 -0.504486
-1.48302 2.7994 -1.12311 -0.577489 0.604341 -0.548889
-3.85302 1.4794 -1.69311 -0.184103 -0.978466 0.0933236
-3.55302 2.4094 -0.553115 -0.9392 0.266776 -0.216178
-0.85302 4.2094 -0.133115 -0.737088 0.67434 -0.0443467
1.72698 -2.8706 1.54689 0.0601939 -0.451365 0.890307
-4.00302 3.4594 -3.76312 0.648571 0.565466 -0.509514
0.136979 4.6294 0.646885 0.697503 0.716413 -0.0155335
0.256979 -0.4706 2.29689 0.193915 -0.490194 0.849769
-2.11302 -4.6106 -0.0131147 0.318588 -0.0978767 -0.942826
3.73698 1.7194 -1.81312 -0.328704 -0.657402 -0.678068
1.63698 -6.6806 0.826885 -0.21114 -0.971686 -0.106044
4.90698 2.0794 -0.883115 0.828366 -0.539131 0.152143
1.24698 2.5894 2.62688 0.508717 0.147945 0.848127
-4.51302 2.3794 -1.27311 -0.872075 0.0073572 0.489318
-2.38302 2.4694 -1.06312 0.370549 0.618643 -0.692802
1.87698 -4.7006 2.02689 -0.194197 0.325113 0.925521
2.23698 2.1094 1.36688 0.958585 -0.0614747 0.278094
-3.04302 1.6894 -1.57311 0.713577 -0.684786 0.147905
2.41698 -6.2906 1.63688 0.795911 -0.242728 0.554625
4.51698 2.2894 -0.373114 0.533877 -0.167576 0.82879
4.69698 2.8594 -2.74312 -0.503243 -0.810231 -0.300453
-2.23302 2.6794 0.166885 -0.111127 0.984501 0.135678
-0.97302 3.3394 2.29689 -0.543531 0.642763 0.539842
2.53698 -3.5306 1.09688 0.786354 0.100639 0.609523
-0.253021 4.2394 -1.90312 0.725899 0.577906 -0.372954
-0.55302 2.4994 -1.78311 -0.856866 -0.408011 -0.31513
1.87698 0.9994 1.66689 0.981185 -0.175044 -0.0814576
-0.343021 -3.1106 4.12688 -0.983286 0.0224984 -0.180673
-2.17302 2.2594 -0.913115 0.499131 -0.0292173 -0.866034
0.286979 0.9394 2.53689 0.126557 -0.0827583 0.988501
4.06698 2.1094 -2.20311 -0.0838308 -0.593972 -0.800106
2.50698 -2.6306 -0.283114 0.348604 0.107221 -0.931117
-1.57302 -4.2506 1.12688 0.87219 0.169457 0.458877
-2.80302 -2.1506 1.03689 -0.973397 0.0142207 0.228683
-0.88302 4.4794 -1.66312 -0.462973 0.239957 0.853274
-4.15302 3.7894 -3.55312 -0.709357 0.0714497 -0.701218
-2.56302 -1.5206 0.556885 -0.765884 0.62856 -0.135404
1.33698 3.8494 1.69688 0.762876 0.575793 0.294078
0.106979 2.5594 -3.37312 -0.251933 0.967169 -0.0333795
-1.93302 1.2094 1.36688 -0.919495 -0.3054 0.247507
-3.25302 1.9594 0.0168853 -0.603474 0.192155 0.773884
-1.87302 -2.8106 -0.313114 0.292989 -0.113134 -0.949399
-1.78302 3.1594 1.48688 -0.800131 0.441674 0.405851
1.12698 -2.5706 1.42689 -0.687191 -0.268547 0.675019
-2.56302 -5.9306 1.51689 -0.508246 0.490201 0.708088
-2.14302 2.5594 0.676885 -0.951488 0.307325 0.0149155
-0.70302 4.2094 -2.41312 -0.950024 -0.303968 -0.0711202
-4.78302 2.5894 -2.05312 -0.984462 0.173117 0.0293968
-1.81302 3.2494 -0.133115 -0.428066 0.867448 0.253561
0.55698 -2.2406 1.03689 -0.368039 -0.920148 0.133696
-1.18302 2.6494 -1.36312 -0.0883398 -0.637087 -0.765713
-1.69302 0.6394 0.166885 -0.820004 -0.562417 -0.106212
-2.38302 -6.6206 1.12688 -0.100266 -0.990934 0.0894261
1.36698 -6.1406 2.17689 -0.442642 0.628134 0.639934
-3.04302 -3.1406 0.436886 -0.942219 0.0964606 0.320809
-3.31302 3.1894 -2.11312 0.568133 0.821575 0.0473215
-0.313021 3.0994 -2.86312 -0.422234 -0.046299 -0.905304
5.057 2.5894 -1.75312 0.961676 -0.259259 -0.0892435
-3.67302 -6.6506 -0.133115 -0.468619 -0.845027 0.257537
1.18698 -0.7406 1.84688 0.792566 -0.423879 0.438367
1.60698 3.7894 0.556885 0.759188 0.558278 -0.334603
-0.82302 4.3594 0.916885 -0.120774 0.903869 0.410407
-2.38302 -4.2806 1.60689 0.049515 0.147886 0.987764
0.70698 3.9694 -1.96311 -0.683872 0.517389 -0.514419
1.78698 4.9294 -2.17312 0.415712 -0.727269 -0.546135
2.29698 1.2394 -0.463115 -0.229938 -0.739283 -0.632922
0.256979 4.5394 1.03689 -0.220172 0.895598 0.386559
4.48698 3.5194 -1.51312 0.307006 0.276343 0.910704
-4.66302 2.9794 -3.58312 -0.862938 0.405865 -0.301019
-1.42302 -2.6606 -0.163115 0.361544 -0.314708 -0.877636
1.93698 5.0794 -2.23311 0.603662 0.788714 0.116283
1.90698 1.2694 1.87688 0.798254 -0.353142 0.487935
-2.41302 -6.6806 0.136886 0.33018 -0.936387 -0.119
-2.86302 -2.3306 0.946885 -0.955763 0.19179 0.223009
-2.38302 2.7094 -0.583115 0.0315209 0.958902 -0.281979
-2.11302 2.7694 0.946885 -0.936712 -0.0266521 -0.349084
-0.463021 2.2294 -1.54311 -0.759814 -0.286092 -0.58381
0.91698 4.3894 0.706885 0.855859 0.505211 -0.110754
-2.65302 1.4194 -1.18312 0.262392 -0.449885 -0.853671
-1.96302 -5.9006 0.736885 0.785446 -0.126909 -0.605779
-0.103021 3.9094 -2.05312 0.325045 0.835643 -0.442772
-0.403021 2.4994 -2.95311 -0.686009 0.714674 -0.136503
-0.82302 4.2994 0.286885 -0.633082 0.740537 -0.225415
-3.97302 3.2494 -4.21311 0.390758 -0.908036 -0.15093
-0.0430208 -2.8106 2.59688 -0.395282 -0.775866 -0.491716
4.45698 3.6694 -1.57311 0.135723 0.531115 0.836359
-2.20302 -3.6206 1.21688 0.152024 0.835946 0.527335
-1.18302 5.1394 -2.50311 0.331282 0.859908 -0.388343
-0.52302 -2.1206 0.466886 0.438229 -0.754703 -0.48824
4.06698 4.6294 -2.68312 -0.696573 0.699531 0.159506
-2.80302 -6.1406 -0.223115 -0.145598 0.727877 -0.670072
-2.35302 -1.3706 0.556885 -0.403309 0.87965 -0.252107
1.72698 3.6994 1.21688 0.745867 0.594633 -0.300157
-1.84302 0.8494 1.03689 -0.359185 -0.931163 0.0626279
-4.06302 2.6494 -3.52311 0.76935 -0.62548 -0.129902
-2.74302 -2.6306 1.12688 -0.806117 -0.22611 0.546855
2.35698 -6.0206 0.436886 -0.126204 0.832535 -0.539405
-4.42302 3.5794 -3.01311 -0.778088 0.519632 0.352932
-4.33302 3.6094 -3.49311 -0.592847 0.132029 -0.794418
-2.83302 -6.6506 1.12688 0.172271 -0.974756 -0.142036
0.166979 -2.8706 3.70688 0.863506 -0.503744 -0.0244731
0.58698 2.0194 -3.64311 0.511616 -0.526781 -0.678786
-2.80302 -6.6206 0.826885 0.107811 -0.994147 -0.0069674
-0.70302 2.7994 -2.35311 -0.720782 0.196223 -0.664808
4.03698 1.8994 -2.02311 0.101404 -0.596262 -0.79636
2.20698 -2.0906 -0.253114 0.591778 0.266906 -0.760631
-1.15302 0.309399 -0.343114 -0.774054 -0.621708 -0.119664
2.56698 -5.3906 1.69688 0.788637 -0.132945 0.600314
-0.193021 0.0993995 -0.883115 -0.282191 0.0636448 -0.957245
-3.76302 3.9094 -3.67312 0.704 -0.612323 -0.359784
4.48698 1.6894 -1.12311 0.55871 -0.698304 0.447453
2.17698 -4.2206 0.0168853 0.281893 -0.237734 -0.929526
0.82698 4.3594 -2.11312 -0.873886 0.295902 -0.385701
-3.67302 -6.1706 0.496886 -0.799125 0.442785 -0.40662
4.51698 2.5594 -0.343114 0.387253 -0.0404261 0.921087
1.99698 -1.0406 0.706885 0.368885 0.927194 0.0650838
2.35698 1.0894 0.376886 0.048097 -0.954711 0.293623
-3.04302 -3.5906 -0.0731145 -0.661488 -0.749086 -0.0360936
1.69698 -6.6806 0.556885 -0.611559 -0.781195 -0.125421
-3.22302 2.5894 -2.14312 0.851553 0.24498 -0.463511
4.45698 4.2694 -2.17312 0.518065 0.853915 -0.0493768
1.75698 -4.6706 1.99688 -0.200702 0.231118 0.952
-2.92302 -4.1606 -0.0431147 -0.527659 0.308742 -0.791362
-0.373021 4.1494 1.93688 -0.252448 0.831638 0.494619
5.057 3.0994 -2.98311 0.847518 -0.400363 -0.348457
4.33698 2.9494 -2.35311 -0.803475 -0.0221747 -0.594925
-2.17302 -2.3306 1.66689 -0.354124 -0.12479 0.926835
2.44698 -1.6706 0.196885 0.852114 0.288938 -0.436366
4.24698 2.0494 -2.17312 -0.102728 -0.507982 -0.85522
-0.76302 3.5794 -1.87312 -0.855819 0.471622 -0.212479
0.61698 0.6694 -1.24311 -0.146109 -0.410029 -0.900293
2.56698 2.0494 1.00689 0.18157 0.28788 0.940297
0.256979 -2.0306 0.916885 -0.919366 -0.379451 0.103847
-0.94302 4.9294 -2.50311 0.523845 0.502188 -0.688036
2.26698 2.6494 -0.253114 0.459315 0.797717 -0.390739
1.21698 -2.8706 0.286885 -0.798364 -0.445524 -0.405121
0.82698 0.0093996 2.29689 0.265926 0.0890966 0.959867
2.92698 -2.6306 0.226886 0.947743 0.163328 -0.274057
4.45698 2.4694 -2.32312 0.42808 -0.0930777 -0.898935
4.96698 3.3694 -1.90312 0.979517 0.100038 0.174751
2.65698 -4.4606 1.63688 0.793185 0.241334 0.55912
2.89698 -3.0206 0.646885 0.96846 -0.211836 0.131187
-3.13302 2.1994 -1.93312 0.457815 -0.212462 -0.863288
-0.223021 -1.9706 1.27689 0.584301 -0.798367 0.145612
0.88698 3.0094 -2.41312 0.984815 0.15753 0.0729641
-3.37302 -6.6806 0.106886 0.0146485 -0.996131 -0.0866556
1.24698 -0.0806005 1.93688 0.837645 0.254042 0.483542
1.57698 2.6794 2.35688 0.765321 0.132959 0.629766
-2.74302 1.3894 -1.12311 -0.411507 -0.708244 -0.573631
1.66698 -6.6506 0.586885 -0.548782 -0.806707 -0.21923
-4.15302 2.0194 -1.12311 -0.520207 -0.306289 0.797228
-1.66302 -1.6706 1.81688 0.168328 0.35531 0.919467
-3.88302 2.7694 -1.03312 -0.195896 0.465091 0.863316
-3.55302 -6.2306 -0.313114 0.1192 0.916526 -0.381801
-3.79302 -6.6506 0.436886 -0.198831 -0.979985 -0.00978756
4.60698 2.1394 -2.11312 0.454906 -0.653431 -0.605053
0.79698 3.0994 -2.74312 0.618569 0.384113 -0.685441
1.15698 -6.4106 1.81688 -0.994296 -0.100168 0.0366349
-2.08302 -2.1506 1.72688 -0.469765 -0.22829 0.852763
-3.19302 -6.6806 0.0468853 -0.221947 -0.936427 -0.271742
2.14698 -3.8606 1.60689 0.283737 0.615054 0.735664
4.24698 4.1494 -2.95311 -0.837538 -0.541744 0.0710179
-3.13302 -3.1706 -0.0131147 -0.917846 0.192866 0.346933
-0.91302 4.3594 -2.05312 -0.299622 -0.565693 -0.768256
4.03698 4.0294 -2.26311 -0.855082 0.176861 -0.487397
-2.44302 -4.6706 0.0768855 0.225721 -0.507083 -0.831815
1.57698 3.0694 -0.733115 0.570711 0.793989 -0.209451
0.88698 2.8294 -2.35311 0.872578 0.127159 -0.471634
0.106979 4.5994 -0.193115 0.00302557 0.993584 -0.113059
1.78698 -1.1906 0.166885 0.802657 0.166114 -0.572842
1.75698 -6.6506 0.856885 0.193983 -0.974062 0.116507
4.93698 2.3494 -0.763115 0.739116 -0.162851 0.653596
-4.27302 1.7494 -2.05312 -0.395893 -0.918062 0.0207709
-2.98302 -5.9006 0.436886 -0.103763 0.971532 -0.212975
-3.04302 -3.4406 0.496886 -0.911704 0.0563478 0.406965
0.136979 3.0994 -2.74312 0.196063 0.817855 -0.540992
-2.74302 -3.0806 0.916885 -0.668843 -0.31133 0.675073
-4.00302 -6.4106 0.346886 -0.79236 0.284694 0.539551
-3.58302 2.6194 -0.853115 -0.0892048 0.641773 0.761688
2.65698 1.8694 -0.763115 -0.347251 0.212233 -0.913441
0.406979 1.8394 -3.46312 -0.506174 -0.708248 -0.49211
-1.90302 3.2794 0.736885 -0.738888 0.658587 -0.142502
2.47698 -5.2106 1.84688 0.813328 -0.0694266 0.577648
-3.70302 -6.5306 -0.0431147 -0.869626 0.289622 0.399836
-3.88302 3.3094 -3.37312 0.668076 -0.597024 -0.444114
2.62698 -5.3906 1.57688 0.894524 -0.434762 0.103967
-0.313021 -3.0806 4.09689 -0.978256 -0.000681952 -0.207401
-2.98302 2.0194 0.316885 -0.816597 0.112718 0.566096
-0.85302 4.1794 -0.583115 -0.82821 0.518981 0.21149
-2.50302 -1.8506 1.42689 -0.817919 0.0812523 0.569566
0.76698 2.3794 -2.38312 0.743403 -0.623802 0.241294
0.316979 4.2394 1.84688 0.171888 0.670773 0.721469
-2.95302 2.4694 -1.90312 0.241106 -0.323113 -0.915131
0.61698 2.8294 2.77689 0.0692654 0.609215 0.789974
-2.35302 -5.5106 0.376886 -0.104203 -0.311664 -0.944461
-0.94302 -0.440601 -0.103115 -0.708335 -0.00701302 -0.705842
-1.90302 -3.5006 0.976885 0.581023 -0.183444 0.792945
1.60698 0.1294 1.33688 0.913909 -0.296563 0.277167
-4.51302 3.0994 -2.20311 -0.724823 0.685265 0.0710168
-1.27302 1.5094 2.44688 -0.909135 -0.169578 0.380417
1.45698 -5.4806 1.00689 -0.721951 -0.355311 -0.593752
-3.34302 3.1894 -2.38312 0.821814 0.558336 -0.113507
-1.81302 -3.1106 -0.0731145 0.568444 -0.556392 -0.606052
-3.67302 1.6594 -2.35311 -0.0993953 -0.816184 -0.569179
1.42698 4.9594 -2.29311 -0.505236 0.663136 -0.552256
-1.27302 2.2294 -1.15312 -0.248241 0.191552 -0.94957
-3.13302 -6.5006 -0.403114 -0.591002 0.750214 0.296472
-1.57302 0.8194 -0.613115 -0.729866 -0.526681 -0.435778
-2.41302 -6.2006 1.72688 -0.42672 0.189176 0.884377
-0.313021 2.6494 2.83688 -0.165629 0.169032 0.971594
2.71698 2.5294 -0.223115 -0.0525657 0.943185 -0.328085
0.496979 1.9594 -1.69311 0.663376 -0.712596 -0.228339
2.08698 3.0994 0.0468853 0.339516 0.921655 -0.187833
-0.55302 1.9294 2.83688 -0.187507 -0.0755873 0.979351
-1.15302 3.7894 -0.433114 -0.780876 0.521586 -0.343774
1.42698 -3.2606 0.256885 -0.715988 -0.304705 -0.628104
-1.15302 3.8194 -0.133115 -0.862631 0.38465 0.328498
1.18698 4.1794 0.316885 0.719536 0.651068 -0.241617
-0.0430208 0.9094 -1.18312 0.682005 -0.163984 -0.712726
0.466979 4.4494 -0.403114 0.439189 0.879689 -0.182375
-2.86302 2.4094 -1.84311 0.763232 -0.0526753 -0.643974
-4.15302 2.7094 -4.36312 0.472259 -0.881136 0.0238818
-4.63302 2.8594 -2.23311 -0.971511 0.184418 0.148849
-2.47302 2.7694 -0.343114 0.0153883 0.999636 0.022146
-1.87302 0.8794 1.03689 -0.454246 -0.890872 0.00270245
-2.29302 1.8994 -1.12311 0.629549 -0.0402258 -0.775919
0.88698 0.5794 -1.18312 0.201462 -0.444593 -0.872783
-2.11302 2.5294 -0.733115 0.261095 0.830253 -0.492452
-3.16302 2.2594 -1.99311 0.878898 -0.199392 -0.433336
0.82698 2.4394 -2.08312 0.745682 -0.659851 -0.0924961
-3.04302 -3.2606 -0.313114 -0.662529 -0.0314251 -0.748377
-0.193021 1.7194 -2.50311 -0.55052 -0.66736 0.501556
-2.47302 -6.6506 0.646885 -0.133127 -0.989254 0.0604455
3.37698 2.8594 -1.12311 -0.795598 0.420991 0.43565
5.057 2.9494 -2.08312 0.918127 -0.320648 -0.232868
-3.07302 -5.9306 0.316885 -0.273402 0.950029 -0.150651
2.41698 -6.4706 -0.343114 0.831571 0.540618 0.127365
-1.30302 1.8394 -1.12311 0.14449 0.534529 -0.832707
1.33698 -0.0506005 1.78689 0.792623 -0.283185 0.539959
0.466979 2.7994 2.80689 0.0277012 0.508588 0.860564
3.49698 2.6194 -0.523115 -0.70812 0.617204 0.342965
3.82698 1.4794 -0.403114 0.730593 -0.617127 0.292211
-1.03302 4.5994 -2.20311 -0.420348 -0.738841 -0.526708
0.64698 2.5294 2.83688 0.165227 0.122555 0.978611
-2.98302 1.6594 0.316885 -0.852107 -0.463728 0.242632
-0.073021 -2.5706 2.38688 -0.583063 -0.81234 -0.0118597
0.136979 -2.9906 3.85689 0.828888 -0.556956 -0.0523835
-2.80302 -5.6906 1.33688 -0.743496 0.0946729 0.662005
-1.93302 1.7494 1.72688 -0.773178 -0.182676 0.60731
-0.343021 4.5094 1.18688 -0.154075 0.986121 0.0618608
-4.69302 2.8594 -2.02311 -0.667295 0.18238 -0.722119
-3.94302 3.1894 -3.61311 0.946475 -0.0830107 -0.311919
3.64698 1.3594 -0.943115 0.227064 -0.938922 -0.258587
-1.72302 -4.7306 1.39689 0.746248 -0.0142706 0.665515
0.226979 0.5794 2.44688 0.113239 -0.353718 0.928472
-0.0430208 2.3794 -3.64311 -0.119183 0.899786 -0.419739
0.346979 4.2394 -1.00312 0.398161 0.913486 -0.0837311
-0.85302 1.0894 -1.36312 -0.114901 -0.108822 -0.987398
-1.96302 -3.9506 1.36688 0.524306 0.391711 0.756086
-0.283021 3.8494 -2.20311 -0.221141 0.233515 -0.946872
-4.24302 3.3094 -2.38312 -0.676187 0.736268 -0.0260677
-0.94302 3.5794 -1.09311 -0.812874 0.569257 0.12322
3.76698 2.2294 -0.133115 0.837341 0.376679 0.396198
-3.76302 1.5694 -2.17312 -0.0724032 -0.923996 -0.375484
-2.08302 -3.1706 1.24688 -0.0647345 -0.287467 0.9556
0.0169792 4.6294 0.976885 -0.00899477 0.963196 0.26865
-4.78302 2.4694 -3.25312 -0.972359 -0.185036 -0.142405
4.42698 3.6694 -1.57311 0.0225467 0.529194 0.848202
3.88698 2.7094 -1.81312 -0.779163 0.216228 -0.588346
-0.64302 4.2994 1.45689 -0.380067 0.854032 0.355217
0.106979 1.8094 -1.63311 -0.0799945 -0.996764 0.00788376
2.32698 -2.3606 -0.313114 0.556052 0.231591 -0.79823
0.346979 3.8194 -2.17312 0.113557 0.956776 -0.267739
-4.09302 3.5494 -4.21311 -0.444691 0.841299 -0.307352
0.73698 2.2894 -3.43312 0.843533 0.460141 -0.276988
1.21698 -2.8406 0.196885 -0.767931 -0.637494 0.062322
-4.48302 2.6794 -4.03311 -0.398961 -0.907076 -0.134326
-3.61302 -6.6506 0.0168853 -0.52962 -0.827485 0.186471
-2.68302 -2.2706 1.24688 -0.895172 -0.00376091 0.445705
-1.72302 0.7594 0.856885 -0.874221 -0.441702 0.201586
1.75698 -1.1306 1.42689 0.903674 0.208429 0.374074
-1.24302 -0.140601 1.69688 -0.843463 0.196824 0.49983
2.65698 -4.9406 1.66689 0.833372 -0.28748 0.472067
4.21698 2.6494 -2.26311 -0.851052 -0.0514253 -0.522558
-1.30302 1.2994 2.32688 -0.721822 -0.321447 0.612899
-0.193021 -0.380601 2.32688 0.0299598 -0.0861587 0.995831
-4.75302 2.5294 -3.67312 -0.74798 0.50259 -0.433507
-1.63302 1.8394 2.05689 -0.822411 -0.192076 0.535488
-0.103021 1.9894 -3.52311 -0.476118 -0.814466 -0.331598
0.196979 2.5894 -3.31311 0.0633001 0.990708 -0.120379
-0.61302 2.8594 2.71688 -0.705479 0.311627 0.636544
4.75698 3.0694 -0.703115 0.432016 0.539371 0.722801
-4.06302 2.5894 -1.03312 -0.202663 0.152498 0.967301
-2.20302 1.1494 -0.103115 0.215172 -0.976572 -0.00273677
2.83698 -4.1306 0.586885 0.784271 0.609462 0.116086
1.42698 -6.5906 1.12688 -0.826294 -0.301763 -0.475581
-3.61302 2.2294 -0.493115 -0.89674 0.309783 -0.316056
-1.96302 0.9994 0.526885 -0.973098 -0.216268 -0.0794254
2.80698 1.7794 0.916885 0.344571 -0.00984959 0.938708
-2.32302 -2.2406 -0.343114 -0.0704458 0.371533 -0.925743
0.94698 1.7794 2.74689 0.739959 -0.0788686 0.668012
3.49698 1.9594 0.316885 0.298471 0.00873139 0.954379
2.68698 -3.5006 0.796885 0.921882 0.27847 0.269421
2.44698 1.6294 -0.703115 -0.327624 -0.224022 -0.917865
-4.51302 3.1294 -1.99311 -0.49311 0.793107 -0.357524
-3.04302 -3.5906 0.766885 -0.907215 0.376381 0.187878
-0.67302 0.1294 -0.703115 -0.0131881 -0.959114 -0.282711
-2.23302 -6.6806 0.466886 0.574431 -0.798823 -0.178636
-0.193021 2.9494 -2.89312 -0.401183 -0.231293 -0.886316
-1.39302 -3.0806 0.526885 0.6858 -0.670341 -0.283409
-0.76302 -2.4806 0.706885 0.778021 -0.54456 -0.31327
-3.70302 2.3194 -2.77312 0.738573 -0.267148 -0.618984
-2.11302 -1.3106 1.45689 -0.240806 0.760371 0.603199
1.60698 -6.5006 2.32688 -0.0669997 -0.022328 0.997503
1.21698 -4.2806 0.886885 -0.902933 0.413348 0.117708
1.18698 -3.0806 0.976885 -0.907076 -0.230566 0.352212
-3.61302 2.1394 -0.283114 -0.565631 0.0795231 0.820816
-1.51302 3.3694 1.69688 -0.93241 0.283762 0.223811
1.45698 0.7894 -0.973115 0.602766 -0.573678 -0.554587
0.0469792 -2.0006 0.586885 0.126755 -0.952764 0.275997
-1.33302 0.279399 1.39689 -0.953136 -0.0391209 0.300002
-0.91302 -1.5806 1.90689 -0.110262 -0.246125 0.962946
-0.76302 4.3294 -1.57311 -0.416484 0.231865 0.879079
1.78698 -6.6806 0.376886 -0.295684 -0.953154 -0.0637862
-1.24302 -0.440601 1.72688 -0.838234 0.0457475 0.543389
-3.52302 3.0694 -2.71311 -0.000781701 -0.172158 -0.985069
1.36698 -4.0706 0.676885 -0.834675 0.492647 -0.246205
0.316979 1.6294 -2.68312 0.578017 -0.659311 -0.480837
0.256979 3.3694 2.68688 0.0641025 0.373506 0.92541
-0.73302 -2.3606 0.556885 0.813145 -0.47798 -0.332161
-1.42302 0.0693995 1.27689 -0.923324 -0.282509 0.260117
-0.0130208 4.3594 -0.883115 -0.0900328 0.577274 -0.811572
-0.193021 1.9294 -2.08312 -0.680343 -0.732291 0.0297218
-2.56302 -4.9406 1.60689 -0.22837 0.0744758 0.970722
-1.78302 -3.8306 1.06688 0.593418 0.571574 0.566709
-2.92302 -4.5506 0.166885 -0.270987 -0.345535 -0.898427
-1.18302 4.9594 -2.02311 -0.477156 0.416513 0.773847
-3.28302 2.9194 -1.21311 0.333658 0.91304 0.234587
0.316979 0.6094 -1.06312 -0.80383 -0.414194 -0.426967
-4.63302 2.2894 -4.00312 -0.951658 -0.295615 -0.0834178
-3.25302 3.1294 -1.84311 0.423975 0.888196 0.177069
-1.63302 -5.3606 1.18688 0.938807 0.186168 0.289799
0.256979 1.6894 -1.30312 0.00939331 -0.575417 -0.817806
2.02698 1.1194 1.36688 0.993377 -0.10332 -0.050273
2.20698 -1.3406 1.18688 0.397047 0.834584 0.381868
-0.52302 2.3494 -1.60312 -0.915549 -0.383719 0.120539
-2.05302 1.8394 1.27689 -0.985656 0.157916 0.0595351
1.63698 -6.2906 0.646885 -0.770725 0.456614 -0.444394
3.16698 2.2294 0.496886 0.76178 0.286125 0.581227
4.18698 1.5994 -1.66312 0.535923 -0.774009 -0.337189
-0.94302 2.0194 2.71688 -0.366145 0.473563 0.801047
0.97698 -2.4506 0.226886 -0.916414 -0.399931 0.0154936
1.81698 -1.4906 1.54689 0.493357 0.405418 0.769568
0.88698 -0.260601 2.26689 0.381255 -0.265191 0.885617
-4.06302 2.3194 -3.22311 0.840633 -0.436528 -0.320592
-0.433021 2.5294 -2.77312 -0.652988 0.756146 0.0430062
1.15698 3.4294 -1.54311 0.884325 0.461577 -0.0701187
-2.83302 2.5294 -1.78311 0.947592 0.208727 -0.241874
2.38698 -6.2606 1.66689 0.804156 -0.272111 0.528478
0.226979 3.1594 2.74689 0.066281 0.309937 0.948444
3.22698 2.2594 -1.39312 -0.222122 0.388399 -0.89432
-0.61302 2.2894 -1.42312 -0.558133 -0.553632 -0.618044
-1.12302 0.6994 2.11688 -0.180567 -0.977608 0.108063
0.0469792 -1.3406 -0.463115 0.0410741 -0.0765286 -0.996221
1.33698 3.9094 1.60689 0.292475 0.736166 0.610342
1.03698 4.2094 -0.553115 0.549847 0.829668 -0.0965379
2.77698 -4.3406 0.526885 0.915142 -0.402723 0.0181336
0.316979 -0.140601 2.38688 -0.650869 0.511993 0.560564
-0.64302 2.7094 -2.41312 -0.612351 0.167054 -0.772735
1.75698 0.7894 -0.613115 0.74655 -0.539362 -0.389553
0.466979 1.8994 -1.30312 0.69973 -0.388328 -0.59965
1.33698 -0.230601 1.87688 0.880659 0.0907769 0.464973
-4.60302 2.3794 -2.59311 -0.65902 -0.244285 -0.711349
-3.61302 2.7394 -0.943115 -0.0109703 0.576326 0.817146
-2.02302 3.0394 -0.0431147 -0.844193 0.0045295 -0.536021
1.15698 -0.350601 2.08688 0.64823 0.137838 0.748865
1.66698 -4.0706 0.286885 -0.447335 0.338673 -0.827763
-2.20302 1.4194 -0.913115 0.629105 -0.155978 -0.76151
2.92698 -3.0506 0.256885 0.901027 -0.428419 -0.0678791
-2.02302 -2.0006 -0.313114 0.0107837 0.347671 -0.937555
3.85698 2.0194 -0.133115 0.7282 0.146779 0.669463
2.68698 -4.0106 1.42689 0.690107 0.445799 0.570102
4.66698 4.1494 -2.59311 0.610967 0.687778 -0.392022
-1.39302 4.6894 -2.23311 0.0299697 -0.521502 -0.852724
1.72698 2.1094 2.26689 0.31698 0.0265359 0.948061
4.75698 3.6394 -1.78311 0.639815 0.204255 0.740889
1.84698 0.6094 0.136886 0.806411 -0.577639 -0.126627
1.06698 -0.5306 2.11688 0.542859 -0.454116 0.706458
-0.253021 1.1494 2.77689 0.211053 -0.475202 0.85419
-3.43302 1.4794 -0.943115 -0.545483 -0.75449 -0.364957
2.47698 -2.6306 -0.313114 0.446139 0.221329 -0.867164
-0.313021 -2.1506 1.03689 0.588455 -0.766575 0.257066
-1.45302 -0.0206004 0.916885 -0.970932 -0.238842 0.0156657
-2.05302 -6.0506 1.72688 0.167767 0.654494 0.737219
2.80698 -2.7506 0.976885 0.716847 -0.239044 0.654972
-2.23302 -5.6906 0.466886 0.150261 -0.66425 -0.732252
-3.91302 3.3094 -4.18312 0.780359 -0.550797 0.296077
-4.60302 2.8894 -3.85312 -0.744024 0.224849 -0.629183
-3.22302 -6.6506 0.346886 0.149832 -0.97153 0.183523
-1.27302 0.369399 1.54689 -0.855127 -0.382867 0.349529
-0.91302 3.6394 -1.18312 -0.77556 0.628148 -0.0627359
-0.88302 4.1794 0.136886 -0.777829 0.507036 -0.371346
-3.01302 1.3894 -0.0131147 -0.672396 -0.633355 0.383072
0.70698 2.9794 2.65689 0.310041 0.202389 0.928931
0.94698 4.4794 -1.66312 -0.516291 0.632013 0.57793
2.65698 -2.3606 -0.0431147 0.646472 0.135876 -0.750741
2.44698 -1.7306 1.39689 0.839857 0.283204 0.463073
3.76698 2.3494 -1.69311 -0.599146 0.0276622 -0.800162
0.82698 2.2894 -3.07312 0.960512 -0.0040547 -0.278209
-2.89302 1.9894 0.436886 -0.664334 0.231364 0.710725
1.66698 0.6394 1.87688 0.554502 -0.666182 0.498728
3.22698 2.3194 -0.853115 -0.595535 0.801562 0.0532506
-1.00302 2.2594 -1.18312 -0.154133 0.225204 -0.962043
2.32698 1.2094 -0.463115 -0.236661 -0.790966 -0.564238
3.79698 2.1994 -1.75312 -0.773794 0.340093 -0.534397
1.27698 3.4294 -0.913115 0.780024 0.585559 0.220646
-2.23302 -6.5906 1.81688 -0.230229 -0.189584 0.954491
-0.94302 -1.1606 -0.133115 -0.233328 -0.15595 -0.959811
2.11698 -1.8806 1.69688 0.165312 -0.0936357 0.981786
4.93698 2.4994 -0.703115 0.709153 -0.161641 0.686276
4.42698 3.0094 -0.673115 -0.567183 0.570117 0.594366
0.226979 2.9794 2.80689 0.1046 -0.0932859 0.99013
-3.25302 -6.4106 1.06688 -0.438112 0.126196 0.890018
2.56698 -3.3206 0.946885 0.871179 0.0191449 0.490592
-1.96302 2.4094 1.78689 -0.741689 0.105981 0.662318
-0.52302 0.0693995 -0.643115 -0.709952 -0.0299785 -0.703612
2.20698 1.5094 1.15689 0.637039 -0.340214 0.69169
1.36698 -3.3506 0.976885 -0.596416 -0.776259 0.204233
2.05698 1.6294 1.51689 0.95698 0.184342 -0.22407
0.0169792 3.8794 2.32688 0.107723 0.700679 0.705298
1.63698 -5.6606 2.11688 -0.381235 -0.126221 0.915821
0.466979 4.1794 -1.09311 0.271319 0.906109 -0.324582
-0.223021 1.8994 -3.04312 -0.517507 -0.695797 0.498049
1.90698 0.9994 -0.433114 0.95676 -0.133203 -0.258588
-1.66302 0.7894 1.54689 -0.387147 -0.920266 0.0568178
-1.18302 2.1694 -1.18312 -0.153045 0.0924673 -0.983884
2.29698 -6.2906 -0.133115 0.775309 0.588136 0.2302
2.83698 1.5394 -0.823115 -0.404972 -0.33623 -0.850263
-1.81302 2.9494 1.54689 -0.82901 0.0303526 0.558409
2.74698 -4.4006 0.946885 0.949963 -0.0249785 -0.311361
0.136979 1.5394 -2.62311 0.0485148 -0.990735 0.12685
-3.37302 2.9794 -1.30312 0.368042 0.785299 0.497846
1.27698 -1.8206 -0.103115 -0.356954 0.00677499 -0.934097
2.65698 2.5294 -0.223115 0.125249 0.929088 -0.348005
-1.24302 1.1494 2.32688 -0.89316 -0.308862 0.326909
-1.48302 3.3694 1.72688 -0.896168 0.299839 0.327076
-1.78302 -5.3906 0.556885 0.739256 -0.475532 -0.476834
-1.75302 3.3094 0.436886 -0.917139 0.371951 -0.143209
-1.09302 4.0894 -1.87312 -0.796172 -0.356792 0.488682
1.15698 -4.7306 0.976885 -0.942543 -0.306854 -0.132108
1.93698 -4.6106 1.99688 -0.306092 0.326395 0.894301
-0.0430208 -1.9406 1.21688 0.00846585 -0.991892 -0.126802
1.12698 0.9394 2.44688 0.445177 -0.552522 0.704654
2.38698 -4.7906 0.346886 0.495097 -0.587817 -0.639805
-4.09302 3.2494 -1.84311 -0.126055 0.95339 0.27415
3.61698 3.0394 -0.913115 -0.72714 0.582532 0.363212
-3.91302 3.3094 -4.15311 0.807297 -0.557117 0.194661
-2.14302 2.4394 0.796885 -0.96438 0.182354 0.19162
1.12698 -2.6906 0.226886 -0.871398 -0.484151 0.0791445
0.076979 -3.0206 3.85689 0.426671 -0.873859 -0.233072
1.66698 3.3694 -0.133115 0.714064 0.632829 -0.2994
-0.76302 3.7894 -1.72311 -0.915291 -0.295566 0.273649
0.286979 4.1494 2.05689 0.20521 0.715427 0.667873
0.316979 -2.6306 3.25689 0.926878 0.202571 0.31601
1.90698 -2.8106 1.57688 0.111763 -0.488702 0.865262
-2.38302 -6.6206 1.39689 0.020892 -0.995569 -0.0916859
2.89698 2.5894 -0.0431147 0.332072 0.916337 -0.223727
-3.28302 -6.6506 0.736885 0.0696526 -0.977762 -0.197815
1.42698 -0.0206004 0.196885 0.926345 -0.22338 -0.303292
1.81698 -5.3306 0.766885 0.14006 -0.923943 -0.355967
-0.163021 2.8294 -2.83311 -0.696204 -0.589583 -0.409501
-1.33302 5.1394 -2.53312 0.145053 0.915919 -0.374236
1.09698 0.9694 2.47689 0.357874 -0.430591 0.828563
-1.84302 1.1194 1.51689 -0.809288 -0.45994 0.365387
-4.09302 2.8594 -1.12311 -0.0480423 0.583022 0.811035
2.71698 -4.8806 1.06688 0.714938 -0.423663 -0.556213
2.11698 -1.1606 0.886885 0.790895 0.596858 0.135078
1.87698 -6.6506 0.766885 0.127069 -0.987103 0.0973754
-3.97302 2.6194 -3.25312 0.8825 -0.250203 -0.398236
2.65698 1.0894 0.436886 0.041834 -0.908341 0.416133
-0.223021 -2.4506 2.35688 -0.803762 -0.538937 -0.25202
-4.30302 3.6394 -3.49311 -0.120501 0.642432 -0.756809
0.97698 3.3094 -2.11312 0.965078 0.14996 -0.214796
0.106979 4.5394 -0.493115 0.301213 0.828146 0.4727
-3.61302 1.9294 -2.50311 0.873069 0.4357 -0.218899
1.09698 2.8594 -1.36312 0.0115063 -0.987556 0.156843
-0.58302 3.9094 -1.99311 -0.664524 -0.0256005 -0.746828
4.48698 3.4294 -2.89312 -0.662491 -0.355961 -0.659088
-2.05302 3.1294 0.406885 -0.633163 0.773006 -0.0395843
1.69698 -4.9706 2.05689 -0.261247 0.0628986 0.96322
0.58698 4.1794 -0.823115 0.352734 0.292894 -0.888702
1.06698 0.6394 -1.15312 0.294423 -0.485781 -0.823002
2.44698 -5.7506 1.27689 0.92911 -0.197132 -0.312881
1.48698 -2.0306 1.78689 0.0439407 -0.0648632 0.996926
1.45698 -5.9906 2.08688 -0.478774 0.626502 0.615037
-3.01302 -4.6406 1.30689 -0.876656 0.00301361 0.481108
0.64698 4.4794 -0.583115 0.405924 0.909917 -0.0853017
2.14698 -3.7706 -0.133115 -0.203509 -0.287546 -0.935896
1.84698 -3.1406 1.42689 0.0350108 -0.277067 0.960213
2.62698 -2.6306 1.24688 0.773945 -0.174269 0.608801
-3.04302 1.3594 -0.193115 -0.567978 -0.815688 -0.109791
-3.10302 -3.1406 -0.253114 -0.783481 0.149164 -0.603247
1.39698 -6.2606 1.21688 -0.914423 0.107376 -0.390257
1.69698 3.4594 -0.373114 0.837655 0.476842 -0.266375
4.42698 4.2994 -2.26311 0.749901 0.658777 0.0605123
1.39698 3.6394 1.93688 0.921254 0.374684 0.104414
1.03698 2.7694 -2.20311 0.626814 0.270328 -0.730772
1.42698 -2.6006 1.60689 -0.312197 -0.620763 0.719157
0.85698 2.6194 -2.44311 0.894613 -0.0939123 -0.436861
2.11698 -4.1606 0.0168853 -0.0899211 0.331762 -0.939068
1.75698 -5.6306 0.976885 0.107654 -0.553583 -0.825807
-2.44302 -3.9206 1.48688 -0.0412549 0.418862 0.907112
2.14698 3.0094 -0.0131147 0.730772 0.225874 -0.644168
2.71698 -6.1706 0.106886 0.42702 0.869889 -0.246876
-1.87302 -6.2606 1.81688 0.124089 0.383974 0.914968
1.63698 3.7594 0.796885 0.717144 0.684861 0.12911
-0.61302 -0.4106 -0.373114 -0.394641 -0.098973 -0.913489
1.24698 2.2594 -1.09311 0.368444 0.40068 -0.838871
3.04698 -6.6206 0.826885 0.703541 -0.234239 0.670941
1.63698 -1.9706 1.78689 -0.211282 -0.168616 0.962771
0.79698 -2.3906 0.916885 -0.781697 -0.585455 0.214921
0.55698 4.1494 -0.913115 0.604563 0.773289 0.191125
-2.86302 1.2694 -0.523115 -0.00979032 -0.999707 0.0221431
1.12698 4.2094 1.09688 0.412024 0.910368 0.0382883
-1.06302 0.309399 -0.703115 -0.567412 -0.699158 -0.434996
-0.73302 -2.0006 0.106886 0.386324 -0.654494 -0.649916
-0.91302 -0.0506005 2.05689 -0.646602 0.321497 0.69177
-1.00302 -2.6906 1.33688 0.456691 -0.652954 0.604222
-1.45302 -0.140601 1.00689 -0.955673 0.289324 -0.0545902
-2.95302 1.9294 -1.93312 0.79608 -0.309593 -0.520009
1.87698 -0.8606 0.646885 0.923743 0.33197 -0.191036
4.63698 3.4594 -3.07312 -0.0958697 0.0518163 -0.994044
1.39698 -5.6306 1.27689 -0.58893 -0.762822 -0.266953
1.96698 1.6894 -0.703115 0.0709467 -0.186153 -0.979956
-3.43302 3.0994 -1.48311 0.205375 0.952068 0.226688
0.316979 -2.5106 3.13688 0.837066 0.368639 0.40426
1.78698 -2.0606 -0.313114 -0.160456 0.159064 -0.974142
4.45698 2.9194 -2.53312 -0.798792 -0.261786 -0.541664
-0.85302 2.6494 2.68688 -0.377764 0.228737 0.897203
2.05698 1.3894 1.60689 0.926972 -0.255382 0.274779
2.17698 1.7794 1.24688 0.612207 0.0432691 0.789513
0.316979 4.5994 0.0468853 0.168994 0.981705 -0.087727
-0.223021 -3.2306 4.36689 -0.134284 0.0799381 0.987713
2.35698 -2.3906 -0.283114 0.551654 0.0970433 -0.828408
2.38698 -6.0506 0.406885 0.124031 0.497327 -0.858651
2.80698 -1.9406 0.796885 0.930694 0.333956 0.149274
2.02698 2.2894 1.81688 0.644282 0.0903242 0.759435
-1.63302 3.4294 -0.133115 -0.587075 0.79863 0.132415
-0.91302 -2.7206 1.15689 0.527319 -0.830468 0.179603
-1.60302 1.5094 -1.00312 -0.811001 -0.0022687 -0.585041
1.57698 -6.6506 1.96689 0.0379879 -0.981246 -0.188978
2.38698 1.0594 -0.0131147 0.1609 -0.971708 0.1729
2.38698 -6.5006 0.0468853 -0.220063 -0.286068 -0.932597
4.84698 3.1594 -1.69311 0.877741 0.465539 0.113334
2.02698 3.2194 1.15689 0.602067 0.375008 0.704901
0.73698 2.0794 -3.34311 0.886913 -0.448185 -0.111869
-3.85302 -6.6206 -0.373114 -0.955255 -0.220128 0.197565
-1.00302 4.8694 -2.59311 0.27775 0.257892 -0.92539
0.94698 4.3294 0.0768855 0.672999 0.735408 0.0790438
-4.72302 2.7994 -1.72311 -0.888696 0.304198 0.343048
2.20698 2.9794 1.03689 0.94894 0.301254 0.0935889
-1.48302 -0.4106 1.18688 -0.731932 0.645222 0.219008
-2.08302 2.5294 1.39689 -0.931432 0.363908 -0.00237641
-0.103021 3.2194 -2.68312 0.477076 0.823781 -0.306242
-0.0430208 -3.0806 3.91688 0.0622918 -0.996683 0.0523709
-1.27302 2.1994 -1.15312 -0.235474 0.118554 -0.964623
2.68698 2.3194 0.826885 0.490724 0.410737 0.76843
-4.54302 2.0794 -1.33311 -0.57872 0.031582 0.814914
-0.91302 4.0294 -0.673115 -0.427803 0.691514 -0.582059
-2.32302 -1.9106 -0.193115 -0.463263 0.571844 -0.677039
-4.69302 2.9794 -3.34311 -0.747598 0.656896 0.0978964
1.12698 -2.4206 -0.0731145 -0.65204 -0.252717 -0.714828
0.61698 -1.4606 -0.193115 0.02649 -0.398434 -0.916815
-0.463021 -1.1906 -0.313114 -0.520488 -0.150308 -0.840536
-3.46302 2.4994 -2.53312 0.851811 -0.0520516 -0.521258
-4.27302 2.6794 -1.06312 -0.294043 0.0969063 0.950867
0.466979 -1.8806 0.0468853 -0.237208 -0.663022 -0.710025
0.256979 -2.4506 3.16689 0.761155 0.563481 0.321142
-2.68302 -1.7306 0.766885 -0.753394 0.657482 0.0107132
-3.97302 -6.3506 0.346886 -0.71837 0.589233 0.369796
0.0469792 -2.3306 3.13688 0.0565625 0.913201 0.403564
0.106979 -2.0006 2.62688 0.0765738 0.689652 0.720081
-0.91302 2.1994 -1.21311 -0.0869559 -0.0614492 -0.994315
-0.223021 1.8994 -3.13311 0.215339 -0.830373 -0.513916
2.74698 -2.0006 0.316885 0.8924 0.258266 -0.370028
2.86698 -6.6806 0.556885 -0.0485891 -0.864719 -0.4999
-1.66302 -3.0806 0.0468853 0.72037 -0.287954 -0.63099
1.87698 -6.4706 0.0768855 -0.473525 -0.00792838 -0.880745
-1.39302 -2.8106 1.48688 0.150252 -0.489385 0.859027
-1.33302 -2.4506 -0.133115 0.198728 -0.194217 -0.960618
-0.76302 -1.7006 -0.0431147 -0.0311527 -0.516064 -0.855983
