0.013383 0.824207 -0.302155 -0.536859 -0.357497 -0.764185 
-0.702406 0.085369 0.695128 0.040743 -0.451407 0.891388 
0.020392 0.746949 -0.257597 -0.381928 -0.561647 -0.733951 
0.641688 -0.595221 -0.200362 0.757828 -0.147590 -0.635542 
-0.687693 0.154712 0.705908 0.204258 0.070658 0.976364 
-0.684071 -0.959796 -0.018374 -0.883607 -0.152024 -0.442863 
-0.407897 -0.970285 0.182234 0.133920 -0.990872 0.015446 
0.150954 -0.387488 0.761019 -0.032928 0.192039 0.980835 
0.812157 -0.456087 0.242997 0.929081 0.301803 0.213829 
0.351157 -0.833621 0.601775 0.391230 -0.470301 0.791047 
0.289240 -0.661532 0.715046 0.267024 -0.406313 0.873847 
-0.646347 0.017515 0.538959 0.483555 -0.803295 0.347695 
0.297934 -0.595184 0.736843 0.316064 -0.034478 0.948111 
0.008843 -0.566556 -0.465443 -0.014985 -0.241513 -0.970282 
0.017433 -0.682328 -0.425313 -0.112601 -0.400489 -0.909357 
0.680676 -0.756802 0.426389 0.137993 -0.131572 0.981655 
0.202906 -0.425640 0.771865 0.195639 0.113962 0.974032 
-0.016819 0.878262 -0.294398 -0.614156 -0.089029 -0.784147 
0.709868 -0.878622 0.364028 0.266773 -0.794249 0.545895 
0.452677 -0.960910 0.165101 -0.013013 -0.999904 -0.004717 
-0.153909 -0.832752 -0.337485 -0.086192 0.631760 -0.770357 
-0.400550 0.331800 0.149970 0.925761 0.361947 -0.109370 
-0.148808 -0.854524 -0.351900 0.032836 0.423332 -0.905379 
-0.116592 -0.181631 -0.300350 -0.262411 0.479073 -0.837633 
1.000106 -0.600308 0.166297 0.996172 0.036977 -0.079215 
0.486297 -0.956959 -0.004463 0.474041 -0.807184 -0.351765 
0.032244 -0.402501 -0.477571 0.090161 -0.156635 -0.983533 
0.040175 -0.425663 -0.474113 0.121872 -0.015270 -0.992428 
-0.944679 0.079225 0.096357 -0.825299 -0.310238 -0.471841 
0.801699 -0.234766 0.097464 0.984494 0.151996 -0.087575 
0.019319 -0.484274 -0.478070 0.106227 -0.127467 -0.986138 
0.029611 -0.551418 -0.465296 0.222680 -0.184581 -0.957258 
-0.321459 0.500573 -0.028301 0.221981 -0.819507 -0.528331 
-0.577839 0.618515 -0.260721 0.964225 0.227933 0.135337 
0.031899 -0.810546 -0.361147 -0.072631 -0.550662 -0.831563 
0.936809 -0.770094 0.115267 0.787360 -0.588940 -0.182245 
-0.216724 -0.973229 0.280579 -0.069530 -0.997312 -0.023102 
0.026061 -0.915547 -0.120405 0.024983 -0.999629 -0.010880 
-0.617258 0.732627 -0.388675 0.762660 0.621527 0.179036 
0.728997 -0.694522 0.425094 -0.084811 0.193843 0.977360 
0.034023 -0.366852 -0.484063 0.133681 -0.042910 -0.990095 
0.704191 -0.699572 0.423954 0.294658 -0.056876 0.953909 
-0.990505 0.133166 0.205575 -0.979822 -0.110349 -0.166650 
0.054830 -0.509659 -0.468308 0.264179 -0.218872 -0.939311 
-0.703657 0.398423 0.618937 0.298780 0.481416 0.823996 
0.044216 -0.712519 -0.411902 -0.025676 -0.379247 -0.924939 
-0.193515 0.870761 -0.051883 -0.194198 0.807707 0.556684 
0.006297 -0.309173 -0.479708 -0.020284 0.233046 -0.972254 
-0.921757 0.414751 0.471738 -0.887256 0.364026 0.283307 
0.047475 -0.602173 -0.452333 0.222542 -0.169971 -0.959992 
-0.700044 -0.272727 0.555349 -0.377973 -0.005167 0.925802 
-0.148128 0.670337 -0.172861 -0.042630 -0.504112 -0.862585 
-0.097642 0.653766 -0.160977 0.019094 -0.650917 -0.758909 
-0.911075 -0.131326 0.317100 -0.894151 0.242743 0.376259 
0.030428 -0.853849 -0.329014 0.097541 -0.390987 -0.915213 
0.038715 -0.919907 -0.323224 0.220093 -0.159603 -0.962334 
-0.635721 0.418930 -0.120119 0.226076 -0.865909 -0.446196 
-0.778351 0.846916 -0.562430 -0.623973 0.693612 0.359943 
0.095255 -0.480524 -0.462651 0.260564 -0.186179 -0.947335 
0.043005 -0.632038 -0.446016 0.084068 -0.318217 -0.944283 
-0.693875 -0.161528 0.549024 -0.394088 0.292606 0.871250 
0.084962 -0.656117 -0.422734 0.214523 -0.310191 -0.926154 
0.040709 -0.679878 -0.426190 0.093657 -0.348797 -0.932507 
-0.854294 0.461978 0.061792 -0.851765 0.094235 -0.515379 
-0.469661 -0.623474 0.395664 -0.528642 -0.711049 0.463623 
-0.874406 0.438320 0.097566 -0.848896 0.090850 -0.520694 
-0.692081 -0.013026 0.509051 0.172904 -0.669891 0.722046 
0.067381 -0.852105 -0.325199 0.041349 -0.495752 -0.867479 
0.050085 -0.878965 -0.321511 0.167067 -0.101633 -0.980693 
0.299341 -0.132017 0.630672 -0.104467 0.672104 0.733050 
0.339692 -0.143564 0.640944 -0.030704 0.478528 0.877535 
-0.627225 -0.250986 -0.213725 -0.414743 0.100370 -0.904386 
-0.659056 -0.238317 -0.196213 -0.352611 0.108072 -0.929509 
0.086054 -0.543370 -0.446185 0.268859 -0.178553 -0.946485 
0.086946 -0.606114 -0.441304 0.205164 -0.196750 -0.958748 
0.067474 -0.692180 -0.417320 0.115527 -0.240068 -0.963857 
0.077206 -0.718056 -0.412618 0.048691 -0.250215 -0.966965 
0.086784 -0.743152 -0.402034 0.027666 -0.438717 -0.898199 
0.334286 -0.170143 0.658314 0.181697 0.617942 0.764941 
-0.681619 0.199224 0.692799 0.373917 0.326099 0.868243 
0.323209 -0.197842 0.686146 0.291747 0.542240 0.787946 
0.083265 -0.849263 -0.328125 -0.000073 -0.607153 -0.794585 
0.065836 0.817171 -0.336023 -0.377340 -0.449760 -0.809525 
0.324919 -0.974804 -0.179491 -0.102249 -0.969131 0.224343 
0.082378 -0.392320 -0.468389 0.139471 -0.069385 -0.987792 
0.221978 0.032810 0.560776 0.113113 0.346783 0.931100 
0.322138 -0.622925 0.721137 0.413624 -0.324738 0.850565 
0.278332 -0.617097 0.741052 0.269095 -0.189022 0.944383 
0.296573 0.109085 0.501610 0.115136 0.570280 0.813341 
0.239903 -0.754118 0.699717 0.110390 -0.491310 0.863961 
0.847891 -0.722921 -0.040899 0.430693 -0.202464 -0.879495 
0.886422 -0.712854 -0.017859 0.625651 -0.289004 -0.724595 
-0.769656 -0.496053 -0.005028 -0.595855 -0.761379 -0.255460 
0.806162 -0.300122 0.119097 0.996679 0.059151 -0.055971 
-0.468136 0.462463 0.001533 0.011412 -0.301063 -0.953536 
0.498716 -0.966892 0.275253 -0.013541 -0.999908 0.000229 
-0.112344 0.738618 -0.106995 0.430558 0.437271 0.789566 
-0.584143 0.779018 -0.771401 0.229363 -0.066739 -0.971050 
0.102565 -0.347771 -0.468421 0.162550 -0.020459 -0.986488 
0.094573 -0.446893 -0.467025 0.163547 -0.059096 -0.984764 
0.106074 -0.509837 -0.450923 0.254612 -0.224405 -0.940646 
-0.605373 0.637254 -0.696287 0.578674 -0.637087 -0.509172 
0.101455 -0.567698 -0.439481 0.184150 -0.079041 -0.979715 
0.106644 -0.590278 -0.439146 0.142369 -0.055395 -0.988262 
-0.930285 0.490269 0.156350 -0.793775 0.222219 -0.566162 
0.107018 -0.666879 -0.415986 0.106173 -0.261132 -0.959446 
0.111506 -0.718471 -0.407743 0.181719 -0.250306 -0.950960 
-0.423967 -0.263355 -0.259598 0.006984 0.001598 -0.999974 
-0.583641 0.527628 -0.185136 0.995872 -0.090715 0.003185 
0.048792 -0.210460 -0.426575 -0.031411 0.683639 -0.729144 
0.119097 -0.377233 -0.467395 0.104614 -0.023717 -0.994230 
0.088150 -0.774987 -0.382071 0.013738 -0.466344 -0.884497 
0.087335 0.824120 -0.281086 0.781772 0.377946 0.495973 
0.099326 -0.876999 -0.314481 0.079821 -0.225265 -0.971022 
0.088889 -0.902611 -0.315722 0.131325 -0.055709 -0.989773 
-0.236469 -0.043300 -0.240340 -0.053039 0.290869 -0.955292 
-0.920357 -0.226920 0.119051 -0.962673 0.054073 -0.265209 
0.746569 -0.113552 0.299011 0.909029 0.357403 0.214312 
0.148235 -0.410150 -0.462691 0.211275 -0.087230 -0.973526 
0.148130 -0.435046 -0.457675 0.268162 -0.203877 -0.941554 
0.139677 -0.474000 -0.448836 0.257739 -0.218211 -0.941252 
0.109870 -0.618019 -0.434576 0.095277 -0.252576 -0.962875 
0.124323 -0.681858 -0.410126 0.137829 -0.259788 -0.955779 
-0.073666 -0.725735 0.581217 -0.777332 0.028220 0.628457 
-0.706159 0.895722 -0.630322 0.168734 0.878311 0.447325 
0.145270 -0.863070 -0.315220 0.109083 -0.447171 -0.887772 
0.228019 0.269977 0.265859 -0.058524 0.987038 0.149436 
0.141615 -0.016647 -0.268681 0.062051 0.248865 -0.966548 
-0.577687 -0.036142 -0.193187 -0.427751 0.360878 -0.828732 
0.266103 0.262346 0.312305 0.016459 0.967020 0.254167 
-0.747216 -0.520962 0.014652 -0.664693 -0.670245 -0.330084 
0.159071 -0.375245 -0.460208 0.268801 -0.084176 -0.959511 
-0.509977 -0.502353 -0.183418 0.033260 -0.567005 -0.823043 
-0.614810 0.547187 -0.459715 0.794098 -0.554633 -0.248579 
0.167820 -0.059535 -0.270713 0.135755 0.157746 -0.978104 
-0.586613 0.008322 -0.170905 -0.429412 0.360355 -0.828100 
-0.684230 -0.041020 0.501244 -0.130148 0.040805 0.990655 
-0.666197 -0.018966 0.504087 -0.003167 -0.353044 0.935601 
0.707775 -0.775833 0.430961 -0.163071 -0.078168 0.983513 
0.173113 -0.463102 -0.443698 0.206881 -0.184591 -0.960795 
-0.235254 -0.665666 -0.125534 -0.082475 -0.308660 -0.947590 
0.150359 -0.541030 -0.435952 0.217582 -0.185900 -0.958175 
-0.577352 0.753485 -0.765503 0.469065 -0.182736 -0.864052 
-0.677230 0.369335 -0.080682 -0.168347 -0.060860 -0.983847 
0.154219 -0.679791 -0.407203 0.171031 -0.321859 -0.931212 
-0.681106 0.115848 0.701747 0.265322 -0.210805 0.940832 
0.744261 -0.593704 0.395630 0.705702 0.119597 0.698342 
0.730306 -0.619597 0.411623 0.762902 -0.038232 0.645382 
-0.113812 -0.945062 0.711160 -0.102722 -0.490039 0.865627 
-0.085686 0.604025 -0.084755 0.269476 -0.910947 -0.312343 
0.184579 -0.747071 0.710806 -0.148170 -0.490139 0.858958 
0.163197 -0.333291 -0.463593 0.192417 0.104464 -0.975737 
0.218156 -0.380999 0.757551 0.238996 0.095828 0.966280 
0.272330 -0.635470 0.735904 0.209985 -0.413013 0.886186 
0.157118 -0.567026 -0.429592 0.193385 -0.030909 -0.980636 
0.152540 -0.725617 -0.396219 0.223870 -0.268503 -0.936904 
0.669732 -0.914482 0.320823 0.278998 -0.875778 0.393921 
0.154805 -0.797345 -0.368810 0.069234 -0.417677 -0.905954 
0.267503 -0.804619 0.662918 0.001772 -0.717813 0.696234 
0.159884 -0.887995 -0.308490 0.135005 -0.085919 -0.987113 
-0.476256 0.428625 0.006445 0.389741 -0.049094 -0.919615 
-0.715150 0.445931 -0.174105 -0.557164 -0.799851 -0.223175 
-0.694022 0.425761 -0.138905 -0.301658 -0.909539 -0.285904 
0.178520 -0.495935 -0.437130 0.199675 -0.189007 -0.961461 
-0.584912 0.503594 -0.133102 0.997928 -0.063328 -0.011331 
0.937529 -0.750321 0.075537 0.805279 -0.457155 -0.377539 
0.201337 -0.684889 -0.395406 0.177921 -0.324354 -0.929053 
0.159469 -0.758728 -0.382373 0.150083 -0.338960 -0.928752 
-0.484900 0.587192 0.168509 0.172268 0.801355 0.572847 
-0.599455 0.608026 -0.524342 0.917492 -0.362839 -0.162959 
-0.606584 -0.545577 -0.101175 -0.382714 -0.718891 -0.580281 
0.332407 -0.034896 0.548654 -0.006259 0.508826 0.860846 
0.196176 -0.329350 -0.453365 0.366039 0.192636 -0.910443 
0.179295 -0.429008 -0.448039 0.290705 -0.116660 -0.949674 
0.201229 -0.450509 -0.441751 0.181872 -0.107089 -0.977474 
0.205690 -0.533353 -0.419949 0.217423 -0.108767 -0.969998 
0.171953 -0.610198 -0.429181 0.195558 -0.075392 -0.977790 
0.146175 -0.632517 -0.429283 0.108539 -0.293841 -0.949672 
0.213102 -0.720674 -0.378766 0.194847 -0.270625 -0.942760 
0.200916 -0.774221 -0.374418 0.138105 -0.274809 -0.951529 
0.525664 0.167058 0.044186 0.579669 0.776532 -0.246946 
-0.956003 0.306830 0.287411 -0.909982 0.402511 0.099593 
-0.896265 -0.069475 0.107269 -0.926878 0.273801 -0.256768 
0.006474 -0.923938 0.280650 0.025143 -0.999462 0.021045 
0.206346 -0.352415 -0.449797 0.361323 -0.053828 -0.930886 
0.224148 -0.125344 0.624416 0.078072 0.922757 0.377392 
0.311086 0.274700 0.207730 0.123902 0.991743 0.033070 
-0.512824 0.634113 0.073854 -0.681098 0.727461 0.083101 
0.241080 -0.746069 -0.369264 0.206008 -0.136610 -0.968968 
-0.654669 -0.133714 0.551100 -0.242449 0.259211 0.934895 
-0.718350 -0.461227 -0.110552 -0.536117 -0.574146 -0.618818 
-0.622307 -0.093112 0.547814 -0.247259 0.391494 0.886338 
0.205866 -0.856447 -0.304823 0.138527 -0.507701 -0.850324 
0.222455 -0.881061 -0.297301 0.142593 -0.105114 -0.984184 
0.184037 -0.909916 -0.305480 0.126655 -0.054588 -0.990444 
-0.080337 -0.769849 0.608599 -0.158433 0.856942 0.490459 
0.237494 -0.913724 -0.031873 -0.146091 -0.980498 -0.131456 
-0.120124 -0.925716 0.131114 0.141512 -0.987678 -0.066830 
0.491286 0.030220 0.492539 0.303078 0.460080 0.834548 
-0.789833 0.565509 0.092636 -0.337134 0.921981 -0.190503 
-0.625409 0.571523 -0.574091 0.853744 -0.498428 -0.150633 
0.225175 -0.485241 -0.431851 0.186556 -0.247706 -0.950704 
-0.101752 -0.978836 -0.254476 -0.022991 -0.915902 0.400743 
0.103732 0.792486 -0.312445 0.816937 -0.371447 -0.441182 
0.199196 -0.586749 -0.423089 0.140250 -0.053195 -0.988686 
0.231336 -0.607234 -0.417092 0.218342 -0.208945 -0.953241 
-0.491095 0.395553 -0.007716 0.574968 0.251983 -0.778406 
0.593593 -0.674671 -0.212243 0.731101 -0.238922 -0.639068 
-0.413546 0.426565 0.098320 0.898487 -0.433607 0.068602 
-0.395221 0.449773 0.096996 0.651193 -0.714628 0.255449 
0.215634 -0.939745 -0.297861 0.113019 -0.335417 -0.935266 
0.158921 -0.840120 0.626376 0.182899 -0.136716 0.973579 
0.364766 -0.244447 0.704576 0.271027 0.425460 0.863440 
-0.371867 -0.974255 0.101264 0.075544 -0.985694 0.150669 
0.224585 -0.395176 -0.437023 0.310383 -0.025441 -0.950271 
0.163630 -0.231429 0.742038 0.094807 0.278951 0.955614 
0.222355 -0.629562 -0.411877 0.199068 -0.279563 -0.939264 
0.231866 -0.681239 -0.393590 0.187621 -0.340440 -0.921357 
0.414076 -0.944646 -0.235469 0.564869 -0.631246 -0.531461 
-0.262078 -0.975067 -0.206025 0.316706 -0.892679 0.320658 
0.264916 -0.717899 -0.370850 0.145948 -0.299895 -0.942742 
-0.578943 0.767791 -0.663974 0.978631 0.085914 0.186815 
0.244849 -0.776182 -0.366239 0.250367 -0.271983 -0.929162 
0.251900 -0.920557 -0.295077 0.155501 -0.054576 -0.986327 
0.220414 -0.969801 0.554067 -0.059009 -0.988391 -0.140002 
0.259089 -0.260861 -0.409479 0.256258 0.218720 -0.941538 
-0.136438 -0.940251 0.232479 0.549982 -0.832087 0.071771 
0.273052 -0.923055 -0.138404 -0.264621 -0.856492 0.443166 
0.843170 -0.770413 -0.023336 0.540141 -0.427053 -0.725171 
-0.602638 0.630817 -0.671642 0.845724 -0.505963 -0.169567 
-0.160699 -0.964080 0.240533 0.615760 -0.780070 0.111040 
0.229874 -0.579407 -0.420783 0.239802 -0.004058 -0.970813 
-0.933092 0.397679 0.427068 -0.987064 0.117055 0.109555 
0.270251 -0.595783 -0.404596 0.351823 -0.201533 -0.914114 
0.871662 -0.841000 0.175181 0.613663 -0.789501 -0.010257 
0.789663 -0.181892 0.134797 0.966186 0.257285 0.016983 
0.235879 -0.797502 -0.359450 0.200209 -0.493493 -0.846393 
-0.188276 -0.922487 0.013679 0.102587 -0.988860 -0.107847 
-0.833779 0.296320 -0.022430 -0.559475 0.258504 -0.787505 
0.742376 -0.781730 0.434992 0.033470 -0.228537 0.972960 
0.264165 -0.307641 -0.414651 0.284584 0.118898 -0.951249 
0.367092 -0.734083 0.672837 0.521035 -0.412020 0.747504 
0.779510 -0.502303 0.015546 0.925135 -0.127114 -0.357726 
0.253563 -0.647519 -0.397117 0.352048 -0.265444 -0.897553 
-0.930919 -0.271830 0.174022 -0.982808 -0.170919 -0.069828 
-0.923321 -0.281229 0.124399 -0.956985 -0.276321 -0.088468 
-0.089093 0.194721 0.264813 -0.313897 0.897135 0.310833 
-0.213720 0.860366 -0.126312 -0.603054 0.670852 -0.431607 
-0.004148 0.692190 -0.107686 0.331757 0.689348 0.644000 
-0.713744 0.734102 -0.255386 -0.114787 0.902564 0.414972 
0.292275 0.273366 0.245438 0.055264 0.990983 0.122057 
-0.008595 -0.944626 -0.329881 0.263625 -0.354720 -0.897037 
-0.817798 -0.490152 0.111650 -0.733062 -0.666644 -0.134929 
-0.647648 -0.202154 0.565003 -0.204664 0.192622 0.959692 
-0.633382 -0.216307 0.574066 -0.348083 0.254675 0.902208 
-0.678175 -0.191156 0.560385 -0.204186 0.138833 0.969037 
0.252463 -0.344063 -0.424878 0.387321 0.091660 -0.917377 
0.271828 -0.387977 -0.420476 0.255316 0.080306 -0.963517 
0.266132 -0.442742 -0.428929 0.229179 0.032963 -0.972826 
-0.042973 -0.961428 -0.226822 -0.101892 -0.647383 0.755323 
0.577717 -0.704172 -0.228573 0.760253 -0.041374 -0.648308 
-0.635662 0.576111 -0.632132 0.520706 -0.749080 -0.409567 
0.266311 -0.698511 -0.378352 0.278395 -0.262112 -0.924010 
-0.894399 -0.002638 0.132011 -0.859744 -0.441884 -0.256082 
0.274638 -0.828648 -0.321836 0.206935 -0.636048 -0.743385 
0.256891 -0.878409 -0.292279 0.146069 -0.139861 -0.979338 
0.245579 -0.531528 0.738352 0.171785 -0.020489 0.984921 
0.459595 -0.855263 -0.263485 0.582709 -0.332417 -0.741585 
0.287406 -0.918273 -0.110580 -0.307918 -0.937902 0.159770 
0.585998 -0.961192 0.083166 0.182620 -0.960848 -0.208376 
0.317100 -0.327504 -0.399822 0.385660 0.116342 -0.915276 
0.286458 -0.348982 -0.414878 0.284885 0.126145 -0.950225 
0.180949 -0.375153 0.760327 -0.007019 0.151796 0.988387 
0.296573 -0.494645 -0.415302 0.252630 -0.293274 -0.922046 
0.244149 -0.534756 -0.409687 0.223277 -0.121632 -0.967137 
0.684440 -0.451430 0.506776 0.736581 -0.079346 0.671679 
0.290578 -0.634242 -0.380385 0.305208 -0.223687 -0.925641 
0.305823 -0.800876 -0.331741 0.231402 -0.531146 -0.815069 
0.321548 -0.891031 -0.283216 0.095111 -0.222002 -0.970396 
0.320575 -0.104547 0.615511 -0.217409 0.584174 0.781968 
-0.364650 -0.983609 -0.164457 -0.054263 -0.998411 -0.015208 
0.285066 -0.935289 -0.288461 0.196970 -0.240229 -0.950523 
-0.809866 0.271490 -0.042811 -0.480389 0.191109 -0.855981 
-0.540536 -0.339589 -0.245699 -0.369865 -0.060871 -0.927089 
0.951004 -0.500255 0.123002 0.584621 0.745326 -0.320479 
-0.928916 0.374745 0.497324 -0.936709 0.251596 0.243466 
-0.794223 0.770714 -0.457125 -0.834737 0.489746 0.251718 
0.307629 -0.277473 -0.402008 0.370455 0.090456 -0.924435 
0.280603 -0.741217 0.702720 0.181689 -0.283975 0.941460 
0.304155 -0.814516 0.647404 0.194638 -0.694524 0.692642 
0.271323 -0.872743 0.606802 0.133918 -0.113214 0.984504 
0.282788 -0.539134 -0.402728 0.244108 -0.173605 -0.954082 
0.319136 -0.583460 -0.391667 0.294479 -0.157288 -0.942625 
-0.643399 0.454457 0.550668 0.590985 0.359599 0.722097 
-0.620076 0.452528 -0.195728 0.556882 -0.789557 -0.257842 
-0.608313 0.469251 -0.215926 0.736620 -0.649039 -0.190102 
-0.599524 0.472691 -0.189369 0.828427 -0.521062 -0.205433 
0.316982 -0.722714 -0.369302 0.103526 -0.261723 -0.959575 
0.295792 -0.767402 -0.352410 0.156703 -0.353787 -0.922106 
0.288331 -0.852612 -0.298777 0.108051 -0.467036 -0.877612 
0.307855 -0.917397 -0.284183 0.181731 -0.090039 -0.979218 
-0.971871 0.180541 0.430807 -0.995288 0.093831 0.024443 
0.994143 -0.567123 0.157489 0.963509 0.189412 -0.189137 
0.816778 -0.823448 0.005415 0.460899 -0.711535 -0.530368 
-0.457359 0.420401 0.279361 0.927143 0.274688 0.254857 
0.301236 -0.469426 -0.419286 0.284718 -0.139726 -0.948374 
0.795794 -0.460120 0.040315 0.926202 -0.089704 -0.366200 
0.784989 -0.425809 -0.006932 0.924658 -0.054054 -0.376943 
0.328183 -0.498023 -0.402219 0.337890 -0.235905 -0.911142 
0.282401 -0.581206 -0.402266 0.286981 -0.007980 -0.957903 
0.737633 -0.743423 0.435617 -0.148951 0.070056 0.986360 
0.723694 -0.808187 0.426133 0.004348 -0.405914 0.913901 
0.217259 -0.746275 0.709489 0.159859 -0.447555 0.879852 
0.233427 -0.406505 0.756413 0.407307 0.052421 0.911786 
0.331338 -0.651059 -0.368134 0.222761 -0.041534 -0.973988 
0.289248 -0.688837 -0.375516 0.143640 -0.135132 -0.980361 
0.155180 -0.179038 0.713386 0.002569 0.680859 0.732410 
-0.165513 -0.924188 0.051836 0.113432 -0.990780 -0.074088 
0.338217 -0.751140 -0.355629 0.228640 -0.369634 -0.900608 
0.963211 -0.742232 0.172751 0.887260 -0.460038 -0.033694 
-0.939498 0.432831 0.194298 -0.876394 -0.138734 -0.461179 
0.313647 -0.397317 -0.413999 0.310467 0.116328 -0.943439 
0.317904 -0.441523 -0.416102 0.391843 -0.000442 -0.920032 
0.335832 -0.629770 -0.371170 0.257171 -0.280080 -0.924888 
-0.695263 0.507558 -0.505407 -0.402891 -0.857835 -0.319057 
0.327068 -0.702093 -0.371890 0.189117 -0.077717 -0.978874 
-0.647569 -0.277869 0.583629 -0.438580 0.067674 0.896141 
-0.670418 -0.252652 0.565987 -0.412232 0.118998 0.903274 
0.844883 -0.849836 0.093399 0.581977 -0.794362 -0.174045 
0.584070 -0.743481 -0.218679 0.828628 -0.215318 -0.516734 
-0.424870 -0.760296 0.236608 -0.992750 0.104677 0.059084 
0.345382 -0.486232 -0.397045 0.459045 -0.034070 -0.887759 
0.337598 -0.535861 -0.383881 0.286815 -0.178500 -0.941209 
-0.335794 -0.984115 -0.264672 -0.142620 -0.987745 -0.063397 
0.722841 -0.428911 -0.106213 0.808914 -0.029137 -0.587205 
0.356072 -0.600709 -0.376101 0.317831 -0.204209 -0.925895 
0.245062 -0.449599 0.748872 0.346797 -0.053398 0.936419 
-0.758556 0.598000 -0.063210 -0.820659 0.512065 0.253593 
0.115624 -0.161463 0.693411 -0.071071 0.743584 0.664855 
-0.343692 0.562859 0.114291 0.409234 0.118970 0.904640 
0.329357 -0.023249 -0.235704 0.181510 0.174437 -0.967794 
0.436667 -0.072829 0.588400 0.222969 0.634967 0.739663 
-0.446482 -0.983014 0.077539 0.056463 -0.996024 0.068905 
0.359306 -0.330892 -0.380241 0.375927 0.043381 -0.925633 
0.415128 -0.109925 0.621092 0.213342 0.389887 0.895809 
-0.673983 -0.547728 -0.038541 -0.533955 -0.660475 -0.527888 
0.212233 -0.452658 0.768300 0.394126 -0.114700 0.911871 
-0.072585 -0.916042 0.514222 0.054000 -0.953304 -0.297147 
-0.153084 -0.978285 -0.256805 -0.008545 -0.896579 0.442802 
0.350908 -0.785557 -0.335004 0.172526 -0.510360 -0.842477 
0.357113 -0.911913 -0.276675 0.171512 -0.216206 -0.961165 
0.281408 -0.554518 0.736197 0.183533 0.077731 0.979935 
0.284267 -0.694832 0.704319 0.189556 -0.177564 0.965681 
-0.369113 -0.819758 -0.114525 -0.355882 0.248879 -0.900781 
-0.363703 -0.772967 -0.112682 -0.301689 -0.004840 -0.953394 
0.355527 -0.286332 -0.381472 0.341371 0.080554 -0.936470 
-0.970658 0.166617 0.130870 -0.907136 0.015534 -0.420551 
-0.573994 0.729024 -0.755412 0.685524 -0.339697 -0.643943 
0.366755 -0.504871 -0.387780 0.276732 -0.107088 -0.954962 
-0.627230 0.438282 0.541795 0.724864 0.219072 0.653130 
0.372337 -0.679672 -0.360116 0.251977 -0.017161 -0.967581 
0.764288 -0.120929 0.209219 0.919354 0.378389 0.107753 
-0.969480 0.089783 0.144674 -0.927494 -0.219293 -0.302762 
-0.823812 0.513848 0.471506 -0.393160 0.785924 0.477230 
0.196541 -0.968429 0.596037 0.062277 -0.971609 0.228248 
-0.440850 0.391417 0.039213 0.818457 -0.061607 -0.571256 
-0.433960 0.551473 -0.038730 -0.406505 -0.247492 -0.879490 
0.701998 -0.149546 -0.098701 0.793560 0.148765 -0.590026 
0.337376 -0.395930 -0.401345 0.473628 0.068722 -0.878040 
0.360512 -0.416506 -0.388063 0.490765 -0.063045 -0.869008 
0.013199 -0.977503 -0.240384 -0.064574 -0.927371 0.368527 
0.368872 -0.485253 -0.386309 0.382932 0.096066 -0.918768 
0.367753 -0.563183 -0.373960 0.250042 -0.132166 -0.959172 
0.009916 0.184244 -0.042464 -0.205804 0.823061 -0.529354 
0.367604 -0.853125 -0.297092 0.139195 -0.342311 -0.929219 
-0.685532 0.489275 -0.416997 -0.046691 -0.979134 -0.197777 
0.306619 -0.376548 0.734598 0.260267 -0.085157 0.961774 
-0.275422 -0.344851 -0.260561 -0.328431 -0.285191 -0.900444 
0.064245 0.253277 0.190861 -0.198795 0.979711 -0.025430 
-0.114910 0.191983 0.252560 -0.152466 0.938789 0.308917 
-0.143905 0.189683 0.249888 0.044024 0.951376 0.304868 
-0.149088 0.174793 0.282682 0.051043 0.895133 0.442868 
0.365909 -0.353011 -0.379586 0.397106 0.108214 -0.911371 
-0.801477 -0.464359 -0.012480 -0.751622 -0.628370 -0.200539 
-0.621031 -0.360958 0.579099 -0.286260 -0.311482 0.906110 
0.411209 -0.631281 -0.349414 0.288100 -0.169285 -0.942518 
0.363524 -0.720352 -0.357889 0.280153 -0.246985 -0.927638 
0.388939 -0.876266 -0.283672 0.203659 -0.349635 -0.914483 
-0.098675 -0.171826 0.590146 -0.288297 0.214943 0.933105 
-0.622446 -0.250570 0.590235 -0.359721 0.212916 0.908442 
-0.331228 -0.562453 -0.175469 0.034407 -0.442979 -0.895871 
0.395162 -0.334530 -0.368418 0.360946 0.015227 -0.932462 
0.404766 -0.395888 -0.369635 0.440205 0.000264 -0.897897 
-0.647686 -0.031398 0.508454 -0.200406 0.206556 0.957691 
0.369147 -0.439605 -0.380772 0.453498 -0.004394 -0.891247 
-0.624206 -0.009100 0.505939 0.054218 0.089718 0.994490 
0.276381 -0.515991 0.736655 0.064729 -0.102629 0.992611 
0.724451 -0.400551 -0.112788 0.818710 -0.235414 -0.523731 
0.380405 -0.597277 -0.368105 0.274326 -0.204194 -0.939707 
0.420255 -0.661836 -0.346891 0.297109 0.046300 -0.953720 
0.383268 -0.780197 -0.328493 0.296305 -0.464520 -0.834521 
0.386171 -0.817998 -0.303576 0.241578 -0.408409 -0.880251 
0.234370 -0.625315 0.744290 -0.022143 -0.352129 0.935689 
0.405239 -0.902304 -0.266156 0.367125 -0.382364 -0.847949 
0.221233 -0.511057 0.747899 0.252271 -0.202033 0.946331 
0.186755 -0.930906 0.112635 -0.572656 -0.803386 -0.163203 
0.178044 -0.528519 0.750218 -0.022211 -0.228513 0.973288 
0.397560 -0.519860 -0.379557 0.323281 -0.110634 -0.939813 
0.419530 -0.549252 -0.364241 0.337538 -0.133936 -0.931734 
0.439815 -0.639554 -0.337274 0.369229 -0.088678 -0.925098 
0.294904 -0.969559 0.565310 0.030267 -0.987198 0.156599 
0.405332 -0.692985 -0.351216 0.248112 -0.126232 -0.960472 
0.410093 -0.723099 -0.341130 0.237011 -0.351798 -0.905574 
0.417975 -0.757297 -0.322846 0.351517 -0.439603 -0.826550 
0.311658 -0.424725 0.740761 0.178328 0.148395 0.972717 
0.399725 -0.813114 -0.301384 0.351136 -0.358892 -0.864812 
0.654394 -0.547110 -0.193309 0.720047 -0.076660 -0.689678 
0.430683 -0.856299 -0.278541 0.374824 -0.301940 -0.876550 
0.290004 -0.441643 0.745258 0.023685 0.083874 0.996195 
0.277942 0.022019 -0.239519 0.114619 0.203018 -0.972443 
0.673423 -0.533074 -0.174688 0.724306 -0.020273 -0.689181 
-0.454044 -0.629949 -0.105439 -0.607023 -0.228158 -0.761228 
-0.252120 0.642429 -0.145480 -0.204626 -0.414032 -0.886964 
-0.682816 0.556506 -0.597248 -0.586124 -0.644080 -0.491548 
-0.345039 -0.495036 -0.207299 -0.197951 -0.303904 -0.931911 
-0.433470 0.426931 0.204246 0.929997 0.264566 0.255168 
-0.417755 0.399268 0.157615 0.975189 0.212153 0.063220 
-0.058841 0.815939 -0.165927 0.577295 0.127008 0.806597 
0.424014 -0.374375 -0.357077 0.449004 0.058135 -0.891637 
0.789264 -0.294734 -0.001110 0.964045 -0.021194 -0.264891 
0.230408 -0.909559 0.453664 -0.030848 -0.983771 -0.176759 
-0.973310 0.139956 0.418060 -0.995014 -0.060014 -0.079664 
0.420816 -0.447044 -0.357891 0.415446 0.086821 -0.905465 
0.412010 -0.599913 -0.358962 0.310328 -0.218633 -0.925147 
-0.127478 0.780397 -0.112316 0.617109 0.070868 0.783680 
-0.096919 -0.935482 -0.216927 -0.042828 -0.679447 0.732474 
-0.264391 -0.640346 -0.134001 -0.034444 -0.399520 -0.916077 
0.432650 -0.794700 -0.289693 0.461629 -0.328907 -0.823844 
-0.166892 0.573251 -0.071312 0.300739 -0.895027 -0.329367 
-0.329283 -0.784027 -0.122828 -0.282876 0.236637 -0.929507 
-0.525329 0.373139 0.437428 0.599169 0.200898 0.775007 
0.461807 -0.585257 -0.341915 0.404086 -0.197587 -0.893126 
-0.547503 -0.149802 -0.226599 -0.396229 0.138635 -0.907625 
-0.124879 0.594562 -0.091609 0.233049 -0.862870 -0.448490 
-0.603693 -0.265615 0.598674 -0.240478 0.028639 0.970232 
-0.145313 -0.933683 -0.215125 0.075801 -0.730854 0.678311 
-0.607964 -0.166399 0.566130 -0.237245 0.254775 0.937446 
-0.644206 0.022759 -0.130145 -0.453640 0.375046 -0.808425 
-0.320388 -0.758081 -0.122955 -0.055592 0.047842 -0.997307 
0.406583 -0.494474 -0.373944 0.387224 0.057576 -0.920186 
0.392632 -0.120009 0.629388 0.170309 0.346791 0.922351 
0.386451 -0.090258 0.613997 0.083194 0.619995 0.780183 
0.284879 -0.916278 -0.076940 -0.356965 -0.924504 -0.133672 
0.564006 -0.838588 -0.076473 0.586412 -0.666559 -0.460238 
0.281402 -0.303295 0.749919 0.213347 0.217846 0.952379 
-0.507873 -0.941337 -0.117622 -0.319650 0.238708 -0.916974 
0.529207 -0.874218 -0.070545 0.574441 -0.613911 -0.541416 
0.460290 -0.706325 -0.336883 0.327793 -0.159339 -0.931216 
0.277081 -0.786143 0.678893 0.127248 -0.579955 0.804649 
-0.222986 0.593883 -0.116466 0.038988 -0.687872 -0.724784 
-0.618342 -0.030525 -0.164713 -0.473892 0.338202 -0.813047 
0.749936 -0.518787 -0.071133 0.905675 -0.143781 -0.398848 
0.368521 -0.691647 0.687819 0.533338 -0.117835 0.837655 
0.353647 -0.709520 0.691491 0.289170 -0.244358 0.925565 
0.548896 -0.970038 0.106809 0.051342 -0.996176 -0.070698 
0.172609 -0.658435 0.715125 -0.000907 -0.290809 0.956781 
0.180538 -0.467886 0.774002 0.087328 -0.184185 0.979004 
0.475542 -0.513005 -0.344712 0.493138 0.083486 -0.865936 
0.775840 -0.275483 -0.032391 0.928426 0.120158 -0.351549 
-0.052242 0.616183 -0.091556 0.328166 -0.928736 -0.172501 
0.483117 -0.609743 -0.324618 0.471835 -0.141091 -0.870325 
-0.043094 0.621231 -0.068205 0.532570 -0.801701 0.271378 
-0.410189 -0.764196 -0.094406 -0.381100 0.016686 -0.924383 
0.337108 -0.192677 -0.337587 0.323892 0.733228 -0.597889 
0.476746 -0.542398 -0.343608 0.431321 -0.092338 -0.897461 
-0.137076 0.814515 -0.100731 0.736790 -0.202201 0.645178 
-0.045309 0.186762 -0.018866 -0.186085 0.927724 -0.323574 
-0.631212 0.569678 -0.605262 0.710789 -0.657597 -0.249690 
-0.190630 -0.928216 0.042382 0.306021 -0.923783 -0.230164 
-0.518677 -0.015425 -0.207373 -0.209081 0.254309 -0.944252 
-0.387623 0.604787 -0.078044 -0.478131 -0.157063 -0.864131 
-0.377546 -0.577552 -0.161941 -0.254297 -0.367777 -0.894468 
-0.332152 -0.392630 -0.234234 -0.000555 -0.307847 -0.951436 
-0.380727 -0.497007 0.551182 -0.317891 -0.392182 0.863214 
-0.428955 0.306506 0.373043 0.783206 0.499711 0.369970 
-0.414637 0.269326 0.387212 0.827302 0.360250 0.431036 
0.507179 -0.413974 -0.315579 0.422612 0.068777 -0.903697 
0.465749 -0.437405 -0.334594 0.454889 0.065924 -0.888105 
-0.308659 0.780491 0.023401 -0.243360 0.747096 0.618565 
-0.742664 0.590903 0.204034 -0.111960 0.992340 -0.052206 
-0.675018 -0.621638 0.113155 -0.453706 -0.868391 -0.200123 
-0.463306 -0.791389 0.334103 -0.849732 0.407870 -0.334062 
0.507722 -0.639407 -0.311575 0.510622 0.037616 -0.858982 
-0.790707 0.133639 -0.061090 -0.456325 -0.130287 -0.880223 
0.326968 -0.966493 0.319124 -0.047673 -0.997501 0.052139 
-0.724536 -0.323050 -0.181729 -0.460848 -0.051786 -0.885967 
0.048286 -0.966228 -0.216728 -0.079953 -0.728082 0.680812 
0.032182 -0.926800 0.540336 -0.138674 -0.805182 -0.576586 
-0.447017 0.446769 0.011483 0.252677 -0.492312 -0.832936 
-0.610751 -0.417507 0.553127 -0.263982 -0.424369 0.866155 
-0.735483 -0.354440 -0.166929 -0.634292 -0.323547 -0.702133 
-0.440719 -0.034937 -0.226077 -0.124307 0.194066 -0.973081 
-0.348931 0.649785 -0.103819 -0.484338 -0.083112 -0.870925 
-0.160857 -0.937477 0.107106 0.473576 -0.830476 -0.293319 
0.622505 -0.706448 -0.162799 0.794450 -0.344428 -0.500219 
0.500094 -0.900012 -0.080034 0.740484 -0.585253 -0.330398 
-0.615444 -0.033803 0.517204 -0.131162 0.440927 0.887907 
-0.964096 0.110417 0.390256 -0.951387 -0.307927 -0.006523 
-0.601063 -0.018181 0.510978 -0.035824 0.411338 0.910779 
0.509322 -0.227917 0.631531 0.283314 0.231284 0.930721 
0.492698 -0.560601 -0.331402 0.592471 -0.132404 -0.794636 
0.500047 -0.335958 -0.315147 0.467426 0.125606 -0.875064 
0.209699 -0.002755 0.569088 0.100084 0.233367 0.967224 
0.496611 -0.678575 -0.320759 0.426124 0.045708 -0.903509 
0.530434 -0.778287 -0.250369 0.502456 -0.557052 -0.661234 
-0.686935 0.210518 -0.095211 -0.043175 0.000098 -0.999068 
0.773276 -0.748264 0.437930 0.147072 -0.094312 0.984619 
0.492205 -0.172429 0.621047 0.226761 0.250437 0.941202 
-0.340028 -0.098400 -0.253871 0.053462 0.171346 -0.983759 
0.666722 -0.825240 0.411292 -0.076882 -0.321722 0.943708 
-0.530516 0.496456 0.000608 -0.066938 0.202794 -0.976931 
-0.365769 -0.177072 -0.261483 -0.011271 0.064834 -0.997832 
-0.368630 -0.678567 -0.128928 -0.117813 -0.262127 -0.957815 
-0.322176 -0.195207 -0.270995 -0.142246 0.161856 -0.976508 
0.263695 -0.433246 0.743054 0.183637 0.042753 0.982064 
0.302274 -0.399516 0.736258 0.130681 0.119813 0.984158 
0.193412 -0.198462 0.725374 0.069652 0.506583 0.859373 
-0.621405 0.465225 -0.245688 0.593819 -0.779781 -0.198295 
-0.884614 -0.384695 0.258075 -0.897393 -0.364881 0.248086 
0.313056 -0.771925 0.676759 0.303989 -0.437481 0.846287 
0.280927 -0.977462 -0.215787 -0.007285 -0.997952 0.063555 
0.444776 -0.127584 0.619185 0.239812 0.313605 0.918772 
-0.659303 -0.984543 0.020777 -0.080862 -0.996672 -0.010305 
0.495572 -0.490949 -0.328884 0.479030 0.089760 -0.873197 
0.133527 -0.525328 0.745930 -0.183095 -0.341865 0.921740 
0.214508 -0.275102 0.745518 0.072292 0.231403 0.970168 
0.526153 -0.593845 -0.290343 0.679205 -0.024469 -0.733540 
0.452524 0.084412 0.481360 0.263349 0.453882 0.851257 
-0.179953 -0.969666 0.558186 0.095836 -0.994836 -0.033412 
-0.118377 0.891491 -0.087291 0.607589 0.150293 0.779902 
-0.661819 -0.922835 -0.035969 -0.782145 0.429370 -0.451543 
-0.240263 -0.413314 -0.239211 -0.757452 -0.285374 -0.587220 
-0.482704 -0.113482 -0.245524 -0.362796 0.319374 -0.875431 
-0.177103 0.733009 -0.192960 -0.285567 -0.227533 -0.930957 
-0.385533 0.650136 -0.080015 -0.579454 0.051820 -0.813356 
0.094484 0.014453 0.562646 -0.095929 0.403469 0.909951 
-0.399488 -0.500677 -0.179565 -0.277868 -0.345086 -0.896496 
-0.356350 0.608658 -0.094080 -0.391385 -0.230391 -0.890920 
0.607041 -0.768431 0.484101 0.630613 -0.418958 0.653300 
-0.345628 -0.726041 -0.122420 -0.162863 -0.145452 -0.975869 
-0.617812 0.780685 -0.553284 0.765891 0.581525 0.274299 
0.516944 -0.504377 -0.316718 0.583763 -0.034250 -0.811202 
0.538681 -0.524288 -0.294526 0.658241 -0.169587 -0.733457 
0.341415 -0.975757 0.015348 0.022962 -0.999586 0.017354 
-0.670072 0.134304 -0.093794 -0.124576 -0.066429 -0.989984 
-0.585769 0.175250 -0.092873 0.094133 0.088126 -0.991652 
-0.465209 -0.702785 -0.071223 -0.679691 -0.208070 -0.703368 
-0.573819 -0.400915 0.567560 -0.131683 -0.290625 0.947733 
-0.597957 -0.363609 0.581357 -0.045137 -0.321964 0.945675 
-0.606219 -0.306756 0.594331 -0.113755 -0.185988 0.975945 
0.256352 -0.947490 -0.289330 0.164283 -0.486358 -0.858177 
-0.569349 -0.221715 0.599204 -0.132761 0.177447 0.975134 
-0.144696 -0.918456 -0.188552 0.043375 -0.956647 0.288003 
0.667786 -0.060457 0.415992 0.724508 0.394487 0.565215 
0.564283 -0.274556 -0.266220 0.541486 0.111337 -0.833305 
0.549415 -0.429392 -0.294590 0.545220 0.066230 -0.835673 
0.438399 -0.944040 -0.201569 0.690561 -0.628945 -0.357146 
0.552630 -0.474412 -0.294906 0.564881 -0.063848 -0.822698 
0.579877 -0.516159 -0.267762 0.638304 -0.213846 -0.739485 
0.178745 -0.680358 0.714546 -0.138346 -0.025455 0.990057 
0.565125 -0.861083 -0.055463 0.355668 -0.525608 -0.772811 
0.770564 -0.706177 0.435349 -0.087973 0.150071 0.984753 
0.108806 -0.471488 0.759003 -0.327271 -0.118509 0.937470 
-0.898123 -0.332562 0.246305 -0.945356 -0.316803 0.077050 
0.209899 -0.839683 0.618706 0.077381 -0.419744 0.904338 
0.215733 -0.867253 0.615799 0.214665 0.053860 0.975202 
0.226013 -0.567654 0.745534 0.096348 0.107340 0.989543 
0.297477 -0.475150 0.745109 0.031980 -0.111105 0.993294 
-0.454069 -0.699183 0.261431 -0.711187 -0.700818 0.055386 
0.759185 -0.410188 -0.055327 0.870427 -0.019695 -0.491903 
-0.619472 0.592332 -0.612736 0.859655 -0.492953 -0.134130 
-0.590221 0.465261 -0.125093 0.930560 -0.335449 -0.146735 
0.154184 -0.087629 0.583609 -0.038470 0.080029 0.996050 
0.157517 -0.290686 0.752853 0.040217 0.123719 0.991502 
0.183597 0.047048 0.554157 -0.054041 0.396597 0.916401 
-0.431784 -0.589696 -0.128451 -0.512004 -0.267089 -0.816404 
-0.919838 0.016956 0.256841 -0.620500 -0.755906 0.208775 
-0.494794 -0.619956 -0.066419 -0.694366 -0.364828 -0.620287 
-0.467090 -0.143221 -0.260968 -0.239906 0.181882 -0.953606 
0.412884 -0.001072 0.532002 0.094876 0.489999 0.866545 
0.131999 -0.190890 0.723224 -0.025770 0.595830 0.802697 
-0.400103 -0.884611 -0.128737 -0.381475 0.341938 -0.858810 
-0.660466 0.790915 -0.473672 0.515284 0.821025 0.245766 
-0.342744 -0.525983 -0.194100 -0.121192 -0.418788 -0.899961 
-0.926852 0.347357 0.370095 -0.999565 0.010763 0.027455 
-0.704988 0.071853 -0.080374 -0.318069 0.011477 -0.947998 
-0.933680 0.376439 0.413727 -0.996950 -0.073112 -0.027307 
-0.012024 -0.970400 -0.230790 -0.084827 -0.809533 0.580913 
-0.946868 0.369244 0.223445 -0.945221 -0.101989 -0.310089 
-0.485412 -0.603766 0.420578 -0.236284 -0.831647 0.502527 
-0.560410 -0.803603 0.065685 -0.482255 0.871545 -0.088538 
-0.401996 -0.604179 -0.141523 -0.418800 -0.272324 -0.866283 
-0.347134 -0.602800 -0.155708 -0.040719 -0.360428 -0.931898 
-0.388441 -0.633076 -0.139145 -0.249963 -0.288938 -0.924139 
-0.402626 -0.747558 -0.098847 -0.356196 -0.175167 -0.917846 
-0.653361 0.519027 -0.501818 0.548289 -0.805297 -0.225557 
-0.377485 -0.715263 -0.116214 -0.255591 -0.280384 -0.925234 
-0.131217 0.720293 -0.199089 -0.169009 -0.418819 -0.892203 
0.453033 -0.958760 -0.112337 0.668490 -0.737617 -0.095093 
0.466953 -0.940998 -0.094870 0.794027 -0.587329 -0.156734 
-0.586100 -0.632665 0.016662 -0.295482 -0.916210 -0.270647 
-0.497059 -0.797102 0.401852 -0.492488 0.833865 -0.249247 
0.711980 -0.127710 -0.075625 0.828851 0.244318 -0.503303 
0.576951 -0.328737 -0.259816 0.598410 0.053894 -0.799375 
0.093551 0.735686 -0.258104 0.787846 -0.566194 -0.242328 
-0.368148 -0.526608 -0.185944 -0.349268 -0.327360 -0.877979 
0.590978 -0.801771 -0.097335 0.692275 -0.642824 -0.327921 
-0.572204 -0.277121 0.602478 0.001760 -0.113539 0.993532 
-0.761972 -0.139691 -0.129838 -0.623831 0.265899 -0.734937 
-0.579916 -0.203440 0.591851 -0.238549 0.340864 0.909344 
0.160258 -0.952394 0.533344 -0.182560 -0.767196 -0.614884 
0.495168 -0.299727 0.650521 0.322154 0.217301 0.921410 
-0.390157 -0.465463 -0.197701 -0.198746 -0.400891 -0.894308 
-0.036953 0.016073 -0.231156 -0.019837 0.533725 -0.845426 
-0.346409 -0.423380 -0.224159 -0.090060 -0.321369 -0.942662 
-0.380939 -0.399171 -0.229354 0.015273 -0.387797 -0.921618 
-0.225435 -0.903092 -0.365254 -0.208262 0.233285 -0.949845 
-0.418467 -0.425148 -0.218893 0.114800 -0.469600 -0.875384 
0.612603 -0.314092 -0.235993 0.482798 0.032701 -0.875121 
-0.845339 -0.439877 0.220818 -0.805502 -0.590930 0.044357 
0.295184 -0.971989 -0.179859 -0.133916 -0.906198 0.401089 
0.270102 -0.467777 0.744020 0.034970 -0.062669 0.997422 
-0.573341 -0.600732 -0.049632 -0.215287 -0.766340 -0.605288 
0.276383 -0.062556 0.564715 0.078315 0.407133 0.910005 
0.239154 -0.056618 0.570432 0.230541 0.185154 0.955285 
0.075209 -0.871160 0.662106 0.317035 0.126645 0.939920 
-0.525169 -0.763197 0.059511 -0.953935 0.299856 -0.009720 
0.123995 -0.666908 0.721281 -0.045200 -0.408978 0.911424 
0.148915 -0.676133 0.714140 0.089440 -0.263683 0.960454 
-0.447371 -0.538988 -0.151044 -0.174483 -0.577384 -0.797611 
-0.291178 -0.973556 0.361326 0.009564 -0.998884 -0.046253 
-0.779293 0.108728 -0.062836 -0.435267 -0.245289 -0.866242 
0.160528 -0.789869 0.664554 -0.099434 -0.715903 0.691083 
-0.328956 -0.283390 -0.261297 -0.119286 -0.218234 -0.968579 
-0.345775 -0.308284 -0.258378 0.026888 -0.164431 -0.986022 
0.601336 -0.810135 -0.073597 0.484466 -0.525716 -0.699225 
-0.410418 -0.092083 -0.249889 -0.091382 0.345500 -0.933959 
-0.432032 -0.516809 -0.166984 -0.092468 -0.455456 -0.885443 
-0.769842 0.442667 -0.043705 -0.708609 -0.040539 -0.704436 
-0.885584 -0.384619 0.116247 -0.927840 -0.322519 -0.187337 
0.636955 -0.372949 -0.225333 0.518732 -0.044832 -0.853761 
0.461240 -0.180325 -0.276242 0.249808 0.288759 -0.924237 
-0.430195 -0.737668 -0.087838 -0.498653 -0.135086 -0.856211 
-0.476002 0.523453 0.344008 0.938616 0.192686 0.286133 
-0.413907 -0.642850 -0.127789 -0.434038 -0.246513 -0.866512 
-0.089764 0.685692 -0.184414 -0.084089 -0.548923 -0.831632 
-0.647854 0.613442 -0.074176 0.608451 0.681336 0.406901 
-0.719452 0.834166 -0.515223 0.183880 0.889527 0.418246 
-0.723424 0.817492 -0.477930 0.049766 0.911310 0.408703 
0.143704 0.260604 0.282371 -0.119044 0.982231 0.145091 
-0.980106 0.146372 0.486867 -0.995310 0.083511 -0.048835 
-0.960425 0.233695 0.483225 -0.941799 0.332418 0.050131 
-0.757020 0.694895 -0.441155 -0.558751 -0.707228 -0.433159 
-0.161502 -0.923074 0.031653 0.050579 -0.997485 -0.049654 
-0.067623 0.212148 0.095041 -0.239196 0.961052 -0.138436 
0.618547 -0.832430 -0.057036 0.216805 -0.381773 -0.898468 
-0.236783 -0.971686 0.412675 0.252190 -0.964138 0.082699 
-0.155790 -0.194993 -0.294297 -0.329017 0.363167 -0.871698 
-0.270907 -0.973076 0.443820 0.025887 -0.999492 0.018603 
-0.612968 -0.353168 -0.223994 -0.223291 -0.099293 -0.969682 
-0.724475 -0.141152 -0.156581 -0.435299 0.286252 -0.853566 
-0.499102 -0.377072 -0.250618 -0.106641 -0.301253 -0.947563 
-0.278076 0.002653 -0.222932 -0.068971 0.453153 -0.888761 
-0.429610 -0.481819 -0.185065 0.007907 -0.496157 -0.868197 
-0.746427 0.225555 -0.085799 -0.279601 0.018840 -0.959931 
-0.570132 -0.453261 0.551056 -0.261337 -0.418972 0.869578 
0.208246 -0.958551 0.615011 0.214238 -0.597657 0.772598 
-0.426502 -0.172383 -0.265134 -0.014788 -0.026603 -0.999537 
-0.567140 -0.346220 0.582731 0.052373 -0.246162 0.967813 
-0.458742 -0.113932 -0.254183 -0.172781 0.333056 -0.926941 
-0.534999 -0.200360 0.595240 -0.001597 0.343288 0.939229 
-0.568821 -0.165061 0.575249 -0.099797 0.382719 0.918459 
-0.568675 -0.137737 0.567529 -0.118001 0.196283 0.973421 
-0.425189 -0.139708 -0.263333 -0.013687 0.173557 -0.984729 
-0.542830 -0.080910 0.554195 -0.094092 0.442504 0.891817 
0.032931 -0.935824 0.676546 0.299097 -0.172400 0.938520 
-0.265374 -0.983558 -0.339670 -0.103122 -0.962158 -0.252225 
-0.578915 0.024335 0.494591 0.362926 -0.053450 0.930284 
0.656397 -0.752990 -0.069411 0.463823 -0.377362 -0.801540 
0.765764 -0.194841 -0.002776 0.901150 0.254619 -0.350853 
-0.877590 -0.360130 0.076825 -0.878878 -0.382475 -0.285108 
0.389908 -0.288320 -0.371407 0.405147 0.120055 -0.906335 
-0.447453 -0.300372 -0.258876 -0.009165 -0.053931 -0.998503 
-0.278667 0.784039 0.028723 0.013418 0.616746 0.787048 
-0.451675 -0.204618 -0.261484 0.033864 -0.013321 -0.999338 
0.015426 -0.866958 0.682923 0.340527 0.136241 0.930312 
-0.480893 -0.189093 -0.260751 -0.107405 0.036779 -0.993535 
0.160924 -0.595693 0.742634 -0.061426 -0.131798 0.989372 
-0.387013 -0.107851 -0.256208 -0.000302 0.201591 -0.979470 
-0.311155 -0.968870 0.533410 -0.004524 -0.978326 0.207020 
0.748368 -0.077725 0.077601 0.889962 0.443066 -0.107980 
0.640048 -0.838234 0.404819 0.149311 -0.451485 0.879697 
0.851273 -0.851578 0.236809 0.564415 -0.819894 0.095969 
0.471770 -0.291649 0.652623 0.204731 0.307542 0.929249 
0.629094 -0.802002 -0.063373 0.243475 -0.296402 -0.923507 
0.333330 -0.794356 0.653749 0.382288 -0.592392 0.709175 
-0.053689 -0.761052 0.605928 -0.442790 0.443870 0.779048 
0.462029 -0.265422 0.643530 0.291618 0.315287 0.903080 
0.459125 -0.234922 0.634514 0.268472 0.251652 0.929835 
-0.373225 -0.970657 0.470848 -0.000961 -0.999746 0.022510 
-0.108621 -0.967557 0.645634 -0.013854 -0.999260 0.035870 
-0.467014 -0.366290 -0.254890 0.024114 -0.269791 -0.962617 
-0.482391 0.660791 0.032236 -0.727967 0.657177 -0.195406 
0.660843 -0.842434 -0.048177 0.139478 -0.412612 -0.900165 
0.666873 -0.875193 -0.026295 0.187047 -0.594995 -0.781661 
0.332790 -0.960057 0.477953 -0.397403 -0.789459 -0.467787 
-0.521484 -0.201323 -0.253220 -0.382424 0.088799 -0.919710 
-0.510585 -0.129724 -0.236409 -0.377273 0.257707 -0.889524 
0.163121 0.268410 0.209348 -0.124424 0.991492 0.038231 
-0.179127 0.825165 -0.185755 -0.546107 0.264272 -0.794939 
-0.626943 -0.555793 -0.070924 -0.472073 -0.676351 -0.565417 
0.234380 0.008524 -0.239306 -0.007946 0.159973 -0.987090 
-0.628882 0.676298 -0.730729 -0.397369 -0.339945 -0.852371 
-0.272551 -0.583227 0.554461 0.102820 -0.106844 0.988945 
0.680837 -0.742046 -0.066255 0.219596 -0.110672 -0.969293 
0.708245 -0.833600 -0.042318 0.227767 -0.498399 -0.836493 
-0.528379 -0.281382 0.594645 0.033592 -0.189791 0.981250 
-0.528081 -0.236264 0.602224 0.042404 0.014141 0.999000 
-0.548859 -0.412623 -0.224634 -0.230050 -0.287230 -0.929826 
-0.568581 -0.367303 -0.230610 -0.289863 -0.145400 -0.945959 
-0.557183 0.333428 -0.065125 0.348773 0.153530 -0.924546 
-0.879162 -0.001358 0.087959 -0.907594 -0.193777 -0.372455 
-0.530523 -0.109719 0.567097 -0.060029 0.268642 0.961368 
0.574347 0.044229 0.446420 0.461819 0.539196 0.704266 
-0.536245 0.277318 -0.066306 0.355825 0.145768 -0.923115 
-0.558542 0.230931 -0.079002 0.287164 0.138220 -0.947856 
-0.358417 -0.259620 -0.264191 -0.075806 -0.081583 -0.993779 
-0.549213 0.030010 0.485566 0.151005 0.179654 0.972071 
0.121994 -0.046577 0.584212 -0.079474 0.074630 0.994039 
-0.223940 0.540581 -0.029564 0.426209 -0.899424 -0.096862 
0.257579 -0.106671 0.591891 -0.062746 0.644317 0.762180 
-0.585084 -0.315022 -0.227196 -0.232697 0.012644 -0.972467 
0.690267 -0.708182 -0.065543 0.482752 -0.142076 -0.864156 
0.260508 -0.201725 0.715393 0.297315 0.461979 0.835571 
0.202485 0.136507 0.499503 0.067493 0.630314 0.773401 
-0.919333 0.359908 0.149361 -0.899577 0.345336 -0.267402 
-0.538045 0.563672 0.025464 -0.469791 0.438703 -0.766052 
0.395188 -0.148573 0.635386 0.263099 0.274577 0.924871 
-0.745769 -0.553524 0.073611 -0.717380 -0.664535 -0.209188 
-0.576582 -0.114612 -0.217440 -0.246479 0.053690 -0.967660 
0.177516 -0.552543 0.747297 -0.039767 -0.042891 0.998288 
0.203236 -0.768194 0.695842 -0.011476 -0.657955 0.752970 
-0.741676 0.510096 -0.348023 -0.874266 -0.474181 -0.103976 
-0.471237 -0.814426 0.322604 -0.681060 0.585776 -0.439345 
-0.652809 -0.453118 -0.175156 -0.465027 -0.548870 -0.694616 
0.769555 -0.599227 0.383785 0.148488 0.449347 0.880930 
-0.691002 -0.083216 -0.151538 -0.429870 0.331399 -0.839873 
-0.277639 -0.967667 -0.361491 -0.383727 -0.333734 -0.861031 
0.287343 -0.078526 0.575966 -0.201044 0.645515 0.736812 
0.063764 0.761621 -0.294170 -0.301458 -0.633756 -0.712374 
0.177096 -0.967112 0.549271 -0.107574 -0.926195 -0.361372 
0.708001 -0.697628 -0.055831 0.394839 -0.009211 -0.918704 
0.709130 -0.762965 -0.065782 0.008062 -0.048481 -0.998792 
-0.392885 0.590116 0.136142 0.469905 0.245502 0.847891 
-0.687578 0.056366 -0.090439 -0.369239 0.269873 -0.889287 
-0.185582 0.885079 -0.080759 -0.451221 0.864608 0.221025 
-0.659255 -0.941908 -0.055025 -0.718806 0.176135 -0.672528 
-0.534231 -0.802075 0.505310 -0.319307 0.934434 0.157719 
-0.439867 -0.351662 -0.256439 0.048623 -0.196678 -0.979262 
0.160958 -0.979806 -0.248126 0.023436 -0.998644 -0.046489 
-0.607310 0.217476 -0.092204 0.129384 0.074878 -0.988763 
-0.754566 0.274347 -0.074986 -0.353265 0.171468 -0.919676 
-0.582442 0.304423 -0.076833 0.247454 0.122462 -0.961129 
-0.517384 0.530459 0.003298 -0.392215 0.146270 -0.908170 
-0.574417 0.120258 -0.102868 -0.203158 0.392140 -0.897192 
-0.628899 -0.602595 -0.021788 -0.459718 -0.715279 -0.526341 
-0.566383 -0.222827 -0.226360 -0.323495 0.083680 -0.942522 
-0.675651 -0.483612 -0.125685 -0.477544 -0.676000 -0.561227 
0.213515 -0.147441 0.678928 0.056723 0.830015 0.554850 
-0.793445 0.826858 -0.573305 -0.983086 0.017678 -0.182287 
0.764536 -0.756188 -0.066754 0.188781 -0.204706 -0.960446 
-0.540783 -0.476025 0.545233 -0.133667 -0.571041 0.809966 
-0.515981 -0.417444 0.578432 -0.134210 -0.356454 0.924623 
-0.491212 -0.378036 0.595340 -0.012484 -0.271441 0.962374 
-0.415816 -0.363460 -0.250589 0.103552 -0.353717 -0.929603 
-0.544054 -0.357740 0.580451 -0.187480 -0.157739 0.969520 
-0.509646 -0.353036 -0.254098 -0.192653 -0.111237 -0.974942 
-0.213410 -0.850038 -0.345199 -0.220584 0.590361 -0.776413 
-0.464206 -0.389778 -0.244359 0.073625 -0.416620 -0.906094 
-0.517419 -0.181657 0.584154 0.059967 0.405245 0.912239 
-0.718583 0.173210 -0.087788 -0.202353 -0.067493 -0.976984 
-0.190383 0.770090 -0.052653 0.758568 -0.229993 0.609654 
-0.949752 0.353978 0.254899 -0.995021 -0.093515 -0.034468 
-0.511365 0.012415 0.492680 0.030940 0.491281 0.870451 
-0.710706 0.234823 -0.093391 -0.166499 0.071628 -0.983437 
-0.332014 0.593000 0.098334 0.312200 0.406597 0.858609 
-0.557509 0.155180 -0.093051 0.035622 0.274316 -0.960980 
-0.301432 0.631814 -0.124977 -0.362582 -0.312295 -0.878070 
-0.674202 0.271672 -0.091973 -0.050706 0.102999 -0.993388 
0.724186 -0.692177 -0.053721 0.102697 0.242795 -0.964626 
0.709806 -0.719401 -0.061752 0.084486 0.168837 -0.982016 
-0.528191 -0.172922 -0.244824 -0.458068 0.224123 -0.860199 
0.213998 -0.594660 0.748992 -0.024145 -0.077463 0.996703 
0.154882 -0.723982 0.710922 -0.250691 -0.210829 0.944831 
-0.143027 -0.922563 -0.059676 -0.000020 -0.999771 -0.021385 
0.247067 0.091900 0.527083 0.154996 0.525925 0.836289 
-0.495049 -0.581997 -0.092814 -0.314143 -0.653248 -0.688898 
